0.561686 0.197531 0.052812 1.000000 0.000000 0.000000
-0.550445 -0.148450 -0.176375 1.000000 0.000000 0.000000
-0.566544 -0.419626 -0.002571 1.000000 0.000000 0.000000
-0.414620 -0.001040 -0.369818 1.000000 0.000000 0.000000
-0.506208 -0.143493 0.226288 1.000000 0.000000 0.000000
0.382137 -0.266616 0.393048 1.000000 0.000000 0.000000
-0.068340 -0.225324 0.678953 0.000000 1.000000 0.000000
0.034687 0.706851 -0.566397 1.000000 0.000000 0.000000
0.123411 0.599626 0.526638 1.000000 0.000000 0.000000
-0.463272 0.100231 0.296442 1.000000 0.000000 0.000000
0.541435 0.727420 -0.012163 1.000000 0.000000 0.000000
-0.522671 0.645818 -0.168772 1.000000 0.000000 0.000000
-0.374298 -0.394728 0.361199 1.000000 0.000000 0.000000
0.418876 0.754937 0.357471 1.000000 0.000000 0.000000
-0.530682 0.777101 0.051033 1.000000 0.000000 0.000000
0.419937 0.714411 -0.366059 1.000000 0.000000 0.000000
-0.097125 -0.534333 -0.022257 1.000000 0.000000 0.000000
-0.437487 0.776904 -0.386928 1.000000 0.000000 0.000000
0.541361 0.263268 -0.204179 1.000000 0.000000 0.000000
-0.525394 0.611492 -0.236853 1.000000 0.000000 0.000000
-0.565144 0.100966 0.008061 1.000000 0.000000 0.000000
-0.407633 0.302749 -0.425834 1.000000 0.000000 0.000000
0.178859 0.523794 -0.536885 1.000000 0.000000 0.000000
0.446260 -0.434543 0.274871 1.000000 0.000000 0.000000
-0.514265 0.492422 -0.263721 1.000000 0.000000 0.000000
0.155721 0.447864 0.489586 1.000000 0.000000 0.000000
0.059848 -0.133941 -0.591889 1.000000 0.000000 0.000000
0.459911 -0.605728 0.010061 1.000000 0.000000 0.000000
0.325776 -0.534333 -0.419176 1.000000 0.000000 0.000000
-0.373848 -0.390535 -0.418428 1.000000 0.000000 0.000000
-0.487676 0.644080 -0.253288 1.000000 0.000000 0.000000
0.571219 0.424866 -0.037283 1.000000 0.000000 0.000000
-0.241568 0.576025 0.453019 1.000000 0.000000 0.000000
0.024861 -0.302028 -0.596495 1.000000 0.000000 0.000000
-0.285522 0.680129 0.429319 1.000000 0.000000 0.000000
0.502927 0.115552 0.165456 1.000000 0.000000 0.000000
-0.393766 -0.570422 -0.439141 1.000000 0.000000 0.000000
0.558777 0.226340 0.074902 1.000000 0.000000 0.000000
-0.203748 0.433064 0.468685 1.000000 0.000000 0.000000
-0.080372 -0.042988 -0.588867 1.000000 0.000000 0.000000
-0.504291 0.162376 0.230916 1.000000 0.000000 0.000000
-0.458219 0.431626 0.256115 1.000000 0.000000 0.000000
-0.533506 -0.408611 -0.217268 1.000000 0.000000 0.000000
-0.512332 0.033535 0.211503 1.000000 0.000000 0.000000
-0.008466 -0.254752 0.541450 1.000000 0.000000 0.000000
-0.000167 0.011801 0.513738 1.000000 0.000000 0.000000
-0.198436 -0.103348 0.470885 1.000000 0.000000 0.000000
-0.465141 -0.310158 -0.350889 1.000000 0.000000 0.000000
0.566406 -0.216991 0.016959 1.000000 0.000000 0.000000
0.103978 -0.243459 0.529196 1.000000 0.000000 0.000000
-0.504835 0.729618 -0.286486 1.000000 0.000000 0.000000
0.541528 -0.467026 -0.044014 1.000000 0.000000 0.000000
-0.485106 -0.193660 -0.259490 1.000000 0.000000 0.000000
0.037126 0.425106 0.517880 0.000000 1.000000 0.000000
-0.012665 0.796647 0.512092 1.000000 0.000000 0.000000
-0.535403 -0.078918 -0.072060 1.000000 0.000000 0.000000
0.546189 0.591766 -0.192523 1.000000 0.000000 0.000000
0.294237 -0.436587 -0.481383 1.000000 0.000000 0.000000
0.088170 0.167248 0.502472 1.000000 0.000000 0.000000
-0.539151 -0.131442 -0.013294 1.000000 0.000000 0.000000
0.423657 -0.120310 -0.408123 1.000000 0.000000 0.000000
0.226149 -0.605728 -0.218187 1.000000 0.000000 0.000000
-0.432001 0.239227 0.290283 1.000000 0.000000 0.000000
0.560766 0.471304 0.059801 1.000000 0.000000 0.000000
0.540819 -0.438010 -0.007489 1.000000 0.000000 0.000000
0.110454 0.514211 0.528344 1.000000 0.000000 0.000000
-0.130458 -0.534333 0.002855 1.000000 0.000000 0.000000
0.121486 -0.540736 -0.583774 1.000000 0.000000 0.000000
0.093817 -0.453462 0.501729 1.000000 0.000000 0.000000
0.503717 0.745866 -0.295058 1.000000 0.000000 0.000000
0.399136 -0.356333 -0.436887 1.000000 0.000000 0.000000
0.338778 -0.437985 -0.447205 1.000000 0.000000 0.000000
0.061802 -0.169251 0.802993 0.000000 1.000000 0.000000
-0.561875 -0.180346 -0.089777 1.000000 0.000000 0.000000
-0.077744 -0.534333 -0.361424 1.000000 0.000000 0.000000
-0.491840 -0.330114 0.186350 1.000000 0.000000 0.000000
-0.522236 0.210831 -0.244475 1.000000 0.000000 0.000000
0.317526 -0.185346 0.442625 1.000000 0.000000 0.000000
-0.539604 0.255872 -0.016735 1.000000 0.000000 0.000000
0.057504 0.013024 0.910526 0.000000 1.000000 0.000000
-0.072563 -0.280948 -0.589895 1.000000 0.000000 0.000000
-0.533409 0.107813 -0.217502 1.000000 0.000000 0.000000
0.162750 -0.605728 -0.503494 1.000000 0.000000 0.000000
0.505900 -0.605728 -0.009549 1.000000 0.000000 0.000000
-0.246271 0.437485 0.481983 1.000000 0.000000 0.000000
-0.095376 0.751563 0.501203 1.000000 0.000000 0.000000
-0.046672 0.210862 0.807418 0.000000 1.000000 0.000000
0.472191 0.123360 -0.296541 1.000000 0.000000 0.000000
0.404195 -0.205190 -0.433005 1.000000 0.000000 0.000000
0.384452 -0.261812 -0.448155 1.000000 0.000000 0.000000
0.138981 0.019067 0.495782 1.000000 0.000000 0.000000
0.235227 -0.442222 -0.544448 1.000000 0.000000 0.000000
-0.325924 -0.534333 -0.198464 1.000000 0.000000 0.000000
0.514073 -0.030042 -0.195429 1.000000 0.000000 0.000000
-0.556606 -0.261874 -0.129798 1.000000 0.000000 0.000000
-0.374567 0.347519 0.360993 1.000000 0.000000 0.000000
-0.533499 0.270089 -0.086519 1.000000 0.000000 0.000000
0.488094 0.494658 0.201266 1.000000 0.000000 0.000000
-0.430084 0.670968 0.292781 1.000000 0.000000 0.000000
-0.305637 -0.534333 -0.443856 1.000000 0.000000 0.000000
0.084009 0.333097 0.503020 1.000000 0.000000 0.000000
0.272149 -0.122433 -0.498244 1.000000 0.000000 0.000000
0.422094 0.622599 0.353276 1.000000 0.000000 0.000000
-0.517745 0.796147 -0.180692 1.000000 0.000000 0.000000
0.468169 -0.147524 -0.350114 1.000000 0.000000 0.000000
-0.063265 0.192883 0.534236 1.000000 0.000000 0.000000
-0.463013 0.548014 0.296779 1.000000 0.000000 0.000000
-0.267175 -0.052341 0.442413 1.000000 0.000000 0.000000
-0.313854 0.520496 0.407580 1.000000 0.000000 0.000000
0.263208 0.330006 -0.501947 1.000000 0.000000 0.000000
0.493503 0.821801 0.188208 1.000000 0.000000 0.000000
-0.475666 0.794900 0.280290 1.000000 0.000000 0.000000
-0.470959 0.652805 0.236761 1.000000 0.000000 0.000000
-0.239480 0.267563 0.484796 1.000000 0.000000 0.000000
0.453913 0.220360 0.311809 1.000000 0.000000 0.000000
-0.045685 -0.298475 -0.564629 1.000000 0.000000 0.000000
-0.357716 -0.605728 -0.419605 1.000000 0.000000 0.000000
-0.458642 0.168069 0.255564 1.000000 0.000000 0.000000
0.303291 0.038637 0.417551 1.000000 0.000000 0.000000
0.216971 -0.393353 -0.521099 1.000000 0.000000 0.000000
0.447055 -0.476001 -0.330717 1.000000 0.000000 0.000000
-0.222768 -0.405007 -0.548601 1.000000 0.000000 0.000000
-0.241551 0.743220 0.453027 1.000000 0.000000 0.000000
-0.527238 -0.422882 0.175518 1.000000 0.000000 0.000000
0.525610 -0.238564 0.185322 1.000000 0.000000 0.000000
0.135241 0.292777 -0.553159 1.000000 0.000000 0.000000
0.046987 0.396174 0.815934 0.000000 1.000000 0.000000
0.535851 -0.258232 0.030250 1.000000 0.000000 0.000000
-0.480237 -0.534333 -0.146831 1.000000 0.000000 0.000000
0.026170 -0.050518 0.539440 1.000000 0.000000 0.000000
-0.425197 0.087809 0.299151 1.000000 0.000000 0.000000
0.318154 -0.142426 -0.499027 1.000000 0.000000 0.000000
-0.495570 -0.098990 0.177346 1.000000 0.000000 0.000000
-0.054243 -0.163575 0.535424 1.000000 0.000000 0.000000
0.537917 -0.010012 -0.212494 1.000000 0.000000 0.000000
0.033911 -0.373309 0.509615 1.000000 0.000000 0.000000
-0.328670 -0.605728 0.098228 1.000000 0.000000 0.000000
0.301451 -0.245446 0.454960 1.000000 0.000000 0.000000
0.033488 0.565509 -0.566554 1.000000 0.000000 0.000000
0.569564 0.626503 -0.007032 1.000000 0.000000 0.000000
-0.409593 -0.030032 0.366398 1.000000 0.000000 0.000000
0.558850 0.486950 -0.131231 1.000000 0.000000 0.000000
-0.007266 0.314309 0.512803 1.000000 0.000000 0.000000
0.349556 0.749326 0.418048 1.000000 0.000000 0.000000
-0.395457 -0.605728 -0.257293 1.000000 0.000000 0.000000
-0.352223 -0.053309 -0.471018 1.000000 0.000000 0.000000
-0.453517 -0.032977 -0.319126 1.000000 0.000000 0.000000
0.324327 -0.605728 -0.044856 1.000000 0.000000 0.000000
-0.069514 0.358745 0.783365 0.000000 1.000000 0.000000
-0.434887 0.358163 0.333434 1.000000 0.000000 0.000000
-0.447429 -0.605728 -0.080182 1.000000 0.000000 0.000000
-0.560445 0.362880 0.043756 1.000000 0.000000 0.000000
-0.105116 0.051469 0.499921 1.000000 0.000000 0.000000
0.034220 -0.127347 0.538380 1.000000 0.000000 0.000000
-0.182703 -0.534333 -0.158822 1.000000 0.000000 0.000000
0.051135 0.318062 0.536153 1.000000 0.000000 0.000000
-0.460244 0.264238 0.300387 1.000000 0.000000 0.000000
0.200460 -0.605728 -0.071241 1.000000 0.000000 0.000000
0.496067 0.339940 -0.238899 1.000000 0.000000 0.000000
-0.198066 0.231203 0.501950 1.000000 0.000000 0.000000
0.470531 0.162985 0.243239 1.000000 0.000000 0.000000
-0.551165 0.299845 0.114244 1.000000 0.000000 0.000000
0.433886 0.600662 -0.347880 1.000000 0.000000 0.000000
0.125366 -0.605728 0.090998 1.000000 0.000000 0.000000
-0.202761 0.250176 -0.556889 1.000000 0.000000 0.000000
-0.517374 -0.079146 0.124706 1.000000 0.000000 0.000000
0.533867 -0.422842 0.165387 1.000000 0.000000 0.000000
0.441314 0.248920 0.281316 1.000000 0.000000 0.000000
0.163837 -0.067913 -0.543108 1.000000 0.000000 0.000000
0.153926 0.513429 0.490329 1.000000 0.000000 0.000000
-0.021657 -0.605728 0.485415 1.000000 0.000000 0.000000
0.543446 -0.266408 -0.027437 1.000000 0.000000 0.000000
0.045287 0.254394 0.905160 0.000000 1.000000 0.000000
-0.040612 0.606901 0.508413 1.000000 0.000000 0.000000
0.531805 0.130573 -0.117863 1.000000 0.000000 0.000000
0.524516 -0.409705 0.113334 1.000000 0.000000 0.000000
-0.486123 -0.035952 0.200152 1.000000 0.000000 0.000000
-0.004289 -0.066490 -0.570078 1.000000 0.000000 0.000000
0.504417 -0.605728 -0.077121 1.000000 0.000000 0.000000
-0.352353 -0.534333 0.293034 1.000000 0.000000 0.000000
-0.113987 -0.285327 0.527558 1.000000 0.000000 0.000000
0.557041 0.533530 -0.144972 1.000000 0.000000 0.000000
0.194701 0.375512 -0.530324 1.000000 0.000000 0.000000
-0.115352 -0.178751 0.498573 1.000000 0.000000 0.000000
0.184252 -0.446008 0.477768 1.000000 0.000000 0.000000
-0.523046 0.691110 0.185638 1.000000 0.000000 0.000000
0.209126 -0.259306 -0.555259 1.000000 0.000000 0.000000
-0.519150 -0.402824 -0.177301 1.000000 0.000000 0.000000
0.358735 -0.358548 -0.467888 1.000000 0.000000 0.000000
0.487015 -0.405977 -0.325553 1.000000 0.000000 0.000000
0.457999 0.579368 0.306484 1.000000 0.000000 0.000000
-0.539593 -0.258109 0.145690 1.000000 0.000000 0.000000
-0.187581 0.804430 0.475381 1.000000 0.000000 0.000000
-0.346038 0.383680 0.382884 1.000000 0.000000 0.000000
-0.524471 -0.229703 -0.155099 1.000000 0.000000 0.000000
-0.063382 -0.605728 0.258576 1.000000 0.000000 0.000000
0.518236 -0.401180 0.203124 1.000000 0.000000 0.000000
0.102526 -0.534333 0.221435 1.000000 0.000000 0.000000
-0.270184 -0.078445 0.472078 1.000000 0.000000 0.000000
-0.419863 0.693393 -0.362985 1.000000 0.000000 0.000000
0.542169 -0.087605 -0.039142 1.000000 0.000000 0.000000
-0.531398 -0.545040 -0.222357 1.000000 0.000000 0.000000
-0.096573 0.251997 -0.586734 1.000000 0.000000 0.000000
0.133188 -0.215699 -0.582234 1.000000 0.000000 0.000000
-0.224256 -0.036728 -0.517074 1.000000 0.000000 0.000000
-0.504620 0.793552 0.155497 1.000000 0.000000 0.000000
0.428616 -0.479029 0.344777 1.000000 0.000000 0.000000
-0.487244 -0.136655 0.197446 1.000000 0.000000 0.000000
-0.068172 0.093532 0.893451 0.000000 1.000000 0.000000
-0.116188 -0.358854 -0.555347 1.000000 0.000000 0.000000
0.181053 -0.454412 -0.566888 1.000000 0.000000 0.000000
-0.549910 -0.605728 0.015792 1.000000 0.000000 0.000000
-0.201510 -0.121956 0.500523 1.000000 0.000000 0.000000
0.510227 0.431293 -0.279342 1.000000 0.000000 0.000000
-0.223617 -0.605728 -0.105892 1.000000 0.000000 0.000000
-0.498951 -0.270311 -0.300691 1.000000 0.000000 0.000000
-0.468329 0.160427 -0.346734 1.000000 0.000000 0.000000
0.010104 -0.244125 0.759719 0.000000 1.000000 0.000000
-0.249757 0.083877 -0.506512 1.000000 0.000000 0.000000
0.106897 0.358361 -0.585695 1.000000 0.000000 0.000000
0.536503 -0.546229 -0.215907 1.000000 0.000000 0.000000
0.560395 0.731568 -0.119497 1.000000 0.000000 0.000000
0.381828 0.082678 0.393285 1.000000 0.000000 0.000000
0.028617 0.325010 0.715736 0.000000 1.000000 0.000000
0.380645 -0.056656 0.358196 1.000000 0.000000 0.000000
-0.461914 -0.522199 -0.308184 1.000000 0.000000 0.000000
-0.142992 -0.605728 -0.300605 1.000000 0.000000 0.000000
-0.508102 0.412468 0.221716 1.000000 0.000000 0.000000
0.528864 -0.534333 0.061160 1.000000 0.000000 0.000000
-0.382652 -0.216852 -0.411478 1.000000 0.000000 0.000000
0.352471 -0.534333 -0.153434 1.000000 0.000000 0.000000
-0.416435 -0.605728 -0.209983 1.000000 0.000000 0.000000
0.445606 0.283102 -0.379519 1.000000 0.000000 0.000000
-0.325679 -0.105236 -0.455389 1.000000 0.000000 0.000000
0.532463 0.319584 0.055980 1.000000 0.000000 0.000000
0.120759 0.677149 -0.555065 1.000000 0.000000 0.000000
-0.159199 -0.605728 0.474760 1.000000 0.000000 0.000000
0.389924 0.451437 0.387073 1.000000 0.000000 0.000000
-0.064967 -0.210043 0.730790 0.000000 1.000000 0.000000
-0.032559 -0.078660 0.896040 0.000000 1.000000 0.000000
-0.424010 -0.381003 0.347609 1.000000 0.000000 0.000000
-0.497167 0.052863 -0.304998 1.000000 0.000000 0.000000
-0.334426 0.580709 0.427791 1.000000 0.000000 0.000000
-0.230863 -0.605728 0.463322 1.000000 0.000000 0.000000
0.481589 0.395839 -0.332624 1.000000 0.000000 0.000000
0.471295 0.535992 -0.346041 1.000000 0.000000 0.000000
0.476428 -0.111560 0.282468 1.000000 0.000000 0.000000
-0.482345 0.347471 -0.328469 1.000000 0.000000 0.000000
-0.023806 0.455789 -0.567509 1.000000 0.000000 0.000000
-0.117408 0.711923 0.498302 1.000000 0.000000 0.000000
-0.552538 0.586475 0.103817 1.000000 0.000000 0.000000
-0.109088 -0.605728 0.215069 1.000000 0.000000 0.000000
0.303667 0.464726 -0.474146 1.000000 0.000000 0.000000
-0.509130 0.379192 -0.276118 1.000000 0.000000 0.000000
-0.120096 0.019916 -0.583637 1.000000 0.000000 0.000000
0.553847 0.562856 0.112351 1.000000 0.000000 0.000000
0.260572 -0.534333 -0.136012 1.000000 0.000000 0.000000
0.511878 0.448088 0.143846 1.000000 0.000000 0.000000
0.210429 -0.194948 0.497837 1.000000 0.000000 0.000000
-0.366920 0.270280 0.366861 1.000000 0.000000 0.000000
-0.092569 0.492531 0.530378 1.000000 0.000000 0.000000
0.150403 -0.042422 0.522701 1.000000 0.000000 0.000000
-0.375275 -0.324951 -0.417332 1.000000 0.000000 0.000000
0.388822 0.755957 -0.444802 1.000000 0.000000 0.000000
0.481629 0.744669 0.216872 1.000000 0.000000 0.000000
-0.470021 -0.384964 -0.295910 1.000000 0.000000 0.000000
-0.411220 -0.521857 0.364277 1.000000 0.000000 0.000000
-0.401851 -0.529794 -0.386459 1.000000 0.000000 0.000000
0.540564 0.186345 -0.005546 1.000000 0.000000 0.000000
0.292491 0.734299 -0.482722 1.000000 0.000000 0.000000
0.215750 0.399889 -0.521605 1.000000 0.000000 0.000000
-0.540375 0.449719 -0.034295 1.000000 0.000000 0.000000
-0.073925 0.810470 -0.589715 1.000000 0.000000 0.000000
-0.558487 0.597999 0.058628 1.000000 0.000000 0.000000
-0.557972 0.519836 0.062537 1.000000 0.000000 0.000000
-0.232142 -0.113849 -0.544718 1.000000 0.000000 0.000000
0.489728 -0.133710 0.197320 1.000000 0.000000 0.000000
-0.456941 0.390936 0.304693 1.000000 0.000000 0.000000
0.481945 -0.115334 -0.332160 1.000000 0.000000 0.000000
0.439501 0.423600 -0.387475 1.000000 0.000000 0.000000
0.427167 -0.510201 -0.403548 1.000000 0.000000 0.000000
0.126718 -0.534333 -0.316842 1.000000 0.000000 0.000000
-0.287370 -0.526145 -0.484786 1.000000 0.000000 0.000000
0.041901 -0.605728 -0.463537 1.000000 0.000000 0.000000
-0.144781 -0.605728 -0.446713 1.000000 0.000000 0.000000
-0.235126 0.753907 -0.512572 1.000000 0.000000 0.000000
-0.384492 0.740327 -0.409081 1.000000 0.000000 0.000000
0.033947 0.794515 -0.566494 1.000000 0.000000 0.000000
-0.520049 0.804083 0.192874 1.000000 0.000000 0.000000
-0.566383 -0.042536 -0.055537 1.000000 0.000000 0.000000
0.475493 0.727660 -0.288571 1.000000 0.000000 0.000000
0.143370 0.723661 -0.551586 1.000000 0.000000 0.000000
-0.052778 0.734183 -0.563695 1.000000 0.000000 0.000000
-0.541029 0.487738 -0.027560 1.000000 0.000000 0.000000
-0.101334 -0.534333 0.227335 1.000000 0.000000 0.000000
0.480684 0.620796 0.219155 1.000000 0.000000 0.000000
0.496510 -0.023655 0.255576 1.000000 0.000000 0.000000
-0.451877 0.252166 0.264380 1.000000 0.000000 0.000000
0.466028 -0.304723 0.249108 1.000000 0.000000 0.000000
0.062909 -0.605728 -0.275321 1.000000 0.000000 0.000000
-0.284295 -0.223245 0.466233 1.000000 0.000000 0.000000
0.000616 0.706136 0.513841 1.000000 0.000000 0.000000
-0.351298 0.123274 -0.471727 1.000000 0.000000 0.000000
-0.418551 0.587076 0.307811 1.000000 0.000000 0.000000
0.506400 -0.200615 -0.213954 1.000000 0.000000 0.000000
-0.321911 -0.605728 -0.275642 1.000000 0.000000 0.000000
-0.176529 -0.605728 -0.397629 1.000000 0.000000 0.000000
-0.562487 0.318522 0.028242 1.000000 0.000000 0.000000
-0.231967 0.641337 0.487908 1.000000 0.000000 0.000000
-0.166853 0.071149 -0.540851 1.000000 0.000000 0.000000
0.271420 -0.263475 0.441661 1.000000 0.000000 0.000000
-0.321160 0.623598 -0.494853 1.000000 0.000000 0.000000
0.500125 0.251203 -0.229103 1.000000 0.000000 0.000000
0.316503 0.157036 -0.464297 1.000000 0.000000 0.000000
-0.296343 0.451391 -0.477900 1.000000 0.000000 0.000000
0.106997 -0.411407 0.528799 1.000000 0.000000 0.000000
0.515197 0.545928 -0.192717 1.000000 0.000000 0.000000
0.024976 -0.001036 0.789326 0.000000 1.000000 0.000000
-0.026050 -0.078483 -0.596018 1.000000 0.000000 0.000000
-0.527640 -0.477340 0.074144 1.000000 0.000000 0.000000
0.315002 0.459462 0.444562 1.000000 0.000000 0.000000
0.130580 0.419335 -0.582577 1.000000 0.000000 0.000000
0.016272 0.491337 0.511938 1.000000 0.000000 0.000000
-0.497223 0.444079 -0.230239 1.000000 0.000000 0.000000
-0.283283 -0.475541 0.466652 1.000000 0.000000 0.000000
0.311518 -0.534333 0.392066 1.000000 0.000000 0.000000
-0.293589 -0.574620 -0.516010 1.000000 0.000000 0.000000
0.461030 -0.555032 -0.359418 1.000000 0.000000 0.000000
0.292482 0.145968 -0.482729 1.000000 0.000000 0.000000
-0.167948 0.001637 0.483514 1.000000 0.000000 0.000000
-0.032063 0.425069 0.538344 1.000000 0.000000 0.000000
0.055751 -0.144207 0.701937 0.000000 1.000000 0.000000
0.528060 -0.190684 0.179406 1.000000 0.000000 0.000000
0.009371 0.597283 -0.569729 1.000000 0.000000 0.000000
-0.108403 0.459381 -0.585176 1.000000 0.000000 0.000000
-0.535529 -0.560292 0.155502 1.000000 0.000000 0.000000
0.423997 -0.467539 -0.360768 1.000000 0.000000 0.000000
-0.060034 0.161211 0.836710 0.000000 1.000000 0.000000
0.404347 -0.406651 0.376006 1.000000 0.000000 0.000000
0.079546 -0.605728 -0.426824 1.000000 0.000000 0.000000
0.372142 -0.592427 -0.457600 1.000000 0.000000 0.000000
-0.011042 -0.534333 0.007667 1.000000 0.000000 0.000000
0.536553 -0.399618 -0.081804 1.000000 0.000000 0.000000
0.569856 -0.409944 -0.047635 1.000000 0.000000 0.000000
0.157463 0.239592 0.519776 1.000000 0.000000 0.000000
-0.414835 0.767503 0.359566 1.000000 0.000000 0.000000
-0.033855 0.660069 -0.566186 1.000000 0.000000 0.000000
0.449887 0.035614 0.317056 1.000000 0.000000 0.000000
-0.523344 0.609403 -0.163661 1.000000 0.000000 0.000000
-0.335255 -0.138790 -0.484038 1.000000 0.000000 0.000000
-0.540139 -0.445662 -0.036086 1.000000 0.000000 0.000000
0.284737 -0.534333 0.367602 1.000000 0.000000 0.000000
-0.489411 0.583019 0.192215 1.000000 0.000000 0.000000
0.377144 0.366862 0.396879 1.000000 0.000000 0.000000
-0.534060 -0.036651 0.159048 1.000000 0.000000 0.000000
-0.111534 0.440567 0.527881 1.000000 0.000000 0.000000
0.556587 0.255637 0.091538 1.000000 0.000000 0.000000
0.290527 -0.603107 0.463342 1.000000 0.000000 0.000000
-0.212977 0.209022 -0.521746 1.000000 0.000000 0.000000
-0.270193 -0.080644 -0.528957 1.000000 0.000000 0.000000
-0.486462 -0.605728 -0.138627 1.000000 0.000000 0.000000
-0.069234 -0.126029 0.780540 0.000000 1.000000 0.000000
0.304067 -0.605728 0.159089 1.000000 0.000000 0.000000
-0.562317 0.659531 0.029539 1.000000 0.000000 0.000000
-0.477023 -0.605728 0.146842 1.000000 0.000000 0.000000
-0.551975 -0.278865 0.108090 1.000000 0.000000 0.000000
0.529734 0.027626 -0.133597 1.000000 0.000000 0.000000
0.231018 0.624013 0.489308 1.000000 0.000000 0.000000
-0.204158 0.587689 0.499427 1.000000 0.000000 0.000000
-0.388878 -0.475834 -0.403365 1.000000 0.000000 0.000000
-0.188064 -0.158146 0.506093 1.000000 0.000000 0.000000
-0.277204 0.450850 0.469170 1.000000 0.000000 0.000000
-0.147973 -0.062390 0.522699 1.000000 0.000000 0.000000
-0.131709 -0.385856 0.496420 1.000000 0.000000 0.000000
-0.491710 -0.289380 0.186664 1.000000 0.000000 0.000000
-0.013155 0.532260 0.512028 1.000000 0.000000 0.000000
0.293058 0.481690 0.425404 1.000000 0.000000 0.000000
0.484070 0.591820 0.272508 1.000000 0.000000 0.000000
-0.186462 0.175553 0.506756 1.000000 0.000000 0.000000
-0.499543 0.554403 0.242380 1.000000 0.000000 0.000000
0.532968 -0.026189 0.167558 1.000000 0.000000 0.000000
0.473432 0.547337 -0.293546 1.000000 0.000000 0.000000
0.497589 0.001021 0.178342 1.000000 0.000000 0.000000
-0.294589 -0.534333 -0.333553 1.000000 0.000000 0.000000
0.199459 0.296808 -0.559264 1.000000 0.000000 0.000000
-0.176230 -0.384832 0.480083 1.000000 0.000000 0.000000
-0.099636 0.772139 0.529447 1.000000 0.000000 0.000000
0.086872 -0.505251 0.502643 1.000000 0.000000 0.000000
0.528812 -0.450555 0.083712 1.000000 0.000000 0.000000
0.020870 0.537741 0.511332 1.000000 0.000000 0.000000
0.558571 -0.079927 0.076468 1.000000 0.000000 0.000000
-0.560394 0.161336 0.044141 1.000000 0.000000 0.000000
0.236474 -0.605728 -0.260484 1.000000 0.000000 0.000000
-0.452843 -0.325254 0.310033 1.000000 0.000000 0.000000
-0.188194 0.497344 -0.532011 1.000000 0.000000 0.000000
0.438576 0.023003 -0.341768 1.000000 0.000000 0.000000
-0.333552 -0.605728 -0.091656 1.000000 0.000000 0.000000
-0.546510 -0.019723 0.128992 1.000000 0.000000 0.000000
0.215396 -0.534333 -0.490672 1.000000 0.000000 0.000000
0.021712 0.000150 -0.596910 1.000000 0.000000 0.000000
0.409904 0.490259 0.322250 1.000000 0.000000 0.000000
0.316195 -0.534333 -0.346366 1.000000 0.000000 0.000000
0.404596 -0.605728 0.043314 1.000000 0.000000 0.000000
-0.083774 -0.352632 -0.559614 1.000000 0.000000 0.000000
0.298212 0.249729 -0.514329 1.000000 0.000000 0.000000
0.531047 -0.478778 -0.123621 1.000000 0.000000 0.000000
0.422753 -0.124652 -0.362388 1.000000 0.000000 0.000000
0.423893 0.058187 0.350932 1.000000 0.000000 0.000000
-0.144122 -0.474324 -0.580474 1.000000 0.000000 0.000000
-0.568711 0.730795 -0.037849 1.000000 0.000000 0.000000
0.488135 -0.346785 0.267210 1.000000 0.000000 0.000000
-0.258059 -0.515684 -0.533983 1.000000 0.000000 0.000000
-0.044477 -0.605728 -0.453173 1.000000 0.000000 0.000000
0.202037 -0.534333 -0.024168 1.000000 0.000000 0.000000
-0.556099 0.057855 0.076770 1.000000 0.000000 0.000000
-0.530921 -0.524530 -0.106103 1.000000 0.000000 0.000000
-0.230791 -0.534333 0.150618 1.000000 0.000000 0.000000
-0.548020 -0.605728 -0.051211 1.000000 0.000000 0.000000
0.565978 -0.068633 0.020206 1.000000 0.000000 0.000000
-0.153802 -0.446426 0.489373 1.000000 0.000000 0.000000
-0.210514 -0.605728 0.487994 1.000000 0.000000 0.000000
-0.539211 -0.029199 -0.013750 1.000000 0.000000 0.000000
0.110742 0.094813 0.499500 1.000000 0.000000 0.000000
-0.250603 -0.387889 -0.506161 1.000000 0.000000 0.000000
0.569247 -0.026117 -0.004621 1.000000 0.000000 0.000000
0.559343 0.633172 0.070604 1.000000 0.000000 0.000000
0.567462 0.278862 -0.065818 1.000000 0.000000 0.000000
0.169663 -0.534333 0.444333 1.000000 0.000000 0.000000
-0.066723 -0.605728 -0.520028 1.000000 0.000000 0.000000
-0.341908 -0.400614 0.422050 1.000000 0.000000 0.000000
0.366886 0.331302 -0.425636 1.000000 0.000000 0.000000
0.442490 0.082424 0.326696 1.000000 0.000000 0.000000
-0.263657 0.389385 -0.500754 1.000000 0.000000 0.000000
-0.492406 0.379525 -0.241866 1.000000 0.000000 0.000000
0.436930 -0.069036 0.333942 1.000000 0.000000 0.000000
0.104011 0.557610 -0.586075 1.000000 0.000000 0.000000
0.091852 0.472843 -0.558871 1.000000 0.000000 0.000000
0.178054 0.256747 -0.568130 1.000000 0.000000 0.000000
0.563920 -0.495780 -0.092722 1.000000 0.000000 0.000000
-0.175276 -0.250793 -0.537362 1.000000 0.000000 0.000000
0.509755 -0.275766 -0.205854 1.000000 0.000000 0.000000
0.304042 -0.487474 0.416975 1.000000 0.000000 0.000000
0.571779 0.112001 -0.023853 1.000000 0.000000 0.000000
-0.213808 -0.435455 0.495430 1.000000 0.000000 0.000000
0.304344 -0.228479 -0.473627 1.000000 0.000000 0.000000
-0.437427 -0.450122 0.283212 1.000000 0.000000 0.000000
-0.451167 -0.479719 0.265306 1.000000 0.000000 0.000000
0.412620 0.194345 -0.422506 1.000000 0.000000 0.000000
-0.301232 0.018349 -0.474149 1.000000 0.000000 0.000000
-0.188792 -0.009621 -0.562675 1.000000 0.000000 0.000000
-0.401964 0.760677 -0.386311 1.000000 0.000000 0.000000
0.023925 0.144119 -0.596618 1.000000 0.000000 0.000000
-0.314612 0.236188 -0.499878 1.000000 0.000000 0.000000
0.565317 -0.417631 -0.082114 1.000000 0.000000 0.000000
0.466171 -0.058041 0.295835 1.000000 0.000000 0.000000
-0.566858 -0.338310 -0.051927 1.000000 0.000000 0.000000
0.022938 -0.534333 -0.330280 1.000000 0.000000 0.000000
0.488199 0.667596 -0.257896 1.000000 0.000000 0.000000
-0.009568 -0.155459 -0.569383 1.000000 0.000000 0.000000
-0.431338 0.365391 -0.394941 1.000000 0.000000 0.000000
0.525747 0.436091 0.106993 1.000000 0.000000 0.000000
-0.347235 0.462448 -0.474845 1.000000 0.000000 0.000000
0.167922 0.674837 -0.572327 1.000000 0.000000 0.000000
-0.107056 -0.534333 -0.233802 1.000000 0.000000 0.000000
0.189956 -0.254678 0.506317 1.000000 0.000000 0.000000
-0.339706 0.614483 -0.444626 1.000000 0.000000 0.000000
0.508503 0.178351 -0.208877 1.000000 0.000000 0.000000
0.560365 0.089862 -0.119726 1.000000 0.000000 0.000000
0.390316 0.721007 -0.404661 1.000000 0.000000 0.000000
-0.260942 0.751408 0.475906 1.000000 0.000000 0.000000
-0.265158 0.759506 -0.500132 1.000000 0.000000 0.000000
0.521816 -0.189180 -0.176737 1.000000 0.000000 0.000000
0.208171 0.331667 -0.524744 1.000000 0.000000 0.000000
-0.047301 -0.605728 0.175777 1.000000 0.000000 0.000000
0.383098 0.521802 -0.449194 1.000000 0.000000 0.000000
-0.540774 0.127513 -0.025627 1.000000 0.000000 0.000000
-0.502250 0.523106 0.235844 1.000000 0.000000 0.000000
-0.422765 0.460700 -0.359203 1.000000 0.000000 0.000000
-0.564886 0.797558 0.010025 1.000000 0.000000 0.000000
-0.478670 0.333097 -0.275029 1.000000 0.000000 0.000000
0.150703 0.156477 0.491664 1.000000 0.000000 0.000000
-0.036542 0.073089 0.508949 1.000000 0.000000 0.000000
-0.074730 -0.426672 0.503921 1.000000 0.000000 0.000000
-0.558565 0.793306 0.058039 1.000000 0.000000 0.000000
-0.237319 -0.085279 -0.511663 1.000000 0.000000 0.000000
-0.364421 0.021848 0.404775 1.000000 0.000000 0.000000
-0.274907 0.300683 0.437465 1.000000 0.000000 0.000000
0.145443 -0.605728 0.445009 1.000000 0.000000 0.000000
0.291639 -0.040686 0.426492 1.000000 0.000000 0.000000
0.501580 0.202668 0.168708 1.000000 0.000000 0.000000
0.556288 -0.122439 0.093815 1.000000 0.000000 0.000000
0.083584 -0.605728 -0.219433 1.000000 0.000000 0.000000
-0.060377 -0.055975 -0.562694 1.000000 0.000000 0.000000
-0.195820 0.530257 0.502880 1.000000 0.000000 0.000000
0.027120 0.274317 0.510510 1.000000 0.000000 0.000000
0.354917 -0.605728 -0.410869 1.000000 0.000000 0.000000
0.385396 0.337047 0.390547 1.000000 0.000000 0.000000
-0.390305 0.143989 -0.401505 1.000000 0.000000 0.000000
0.147870 0.070594 0.523418 1.000000 0.000000 0.000000
0.188796 0.005964 0.506797 1.000000 0.000000 0.000000
-0.333658 0.143134 -0.449267 1.000000 0.000000 0.000000
0.502130 -0.605728 0.115828 1.000000 0.000000 0.000000
-0.029394 0.140985 0.509890 1.000000 0.000000 0.000000
-0.182849 -0.415434 0.508253 1.000000 0.000000 0.000000
0.232975 0.501018 -0.514470 1.000000 0.000000 0.000000
0.463378 -0.077538 -0.309446 1.000000 0.000000 0.000000
0.291875 0.520236 -0.519191 1.000000 0.000000 0.000000
0.541076 0.482028 -0.047445 1.000000 0.000000 0.000000
-0.229283 -0.534333 -0.251162 1.000000 0.000000 0.000000
0.041420 0.203392 0.508627 1.000000 0.000000 0.000000
-0.224711 0.346372 0.460001 1.000000 0.000000 0.000000
-0.220940 0.506217 0.492475 1.000000 0.000000 0.000000
-0.414219 -0.317413 -0.417252 1.000000 0.000000 0.000000
-0.008864 0.344331 0.875669 0.000000 1.000000 0.000000
0.541547 0.383858 -0.203730 1.000000 0.000000 0.000000
-0.428549 0.479111 0.341694 1.000000 0.000000 0.000000
0.545667 0.623695 0.136901 1.000000 0.000000 0.000000
-0.211210 0.130778 -0.522478 1.000000 0.000000 0.000000
-0.184679 -0.534333 -0.342760 1.000000 0.000000 0.000000
-0.042009 0.248697 -0.593917 1.000000 0.000000 0.000000
0.387989 -0.437810 0.350811 1.000000 0.000000 0.000000
0.272904 -0.605728 0.167966 1.000000 0.000000 0.000000
-0.312697 0.017753 0.444465 1.000000 0.000000 0.000000
-0.239104 0.264207 0.454040 1.000000 0.000000 0.000000
-0.517811 0.206044 -0.180533 1.000000 0.000000 0.000000
-0.549938 -0.508424 -0.177597 1.000000 0.000000 0.000000
-0.386507 0.055365 0.349572 1.000000 0.000000 0.000000
0.037250 -0.303074 0.578212 0.000000 1.000000 0.000000
-0.516714 0.733588 -0.183183 1.000000 0.000000 0.000000
0.069403 0.243266 0.828471 0.000000 1.000000 0.000000
-0.144409 -0.415706 0.523553 1.000000 0.000000 0.000000
0.022766 0.770650 0.511083 1.000000 0.000000 0.000000
-0.547258 -0.511078 0.127185 1.000000 0.000000 0.000000
-0.241792 -0.017371 -0.540721 1.000000 0.000000 0.000000
0.217857 0.723592 0.463848 1.000000 0.000000 0.000000
-0.032900 0.324286 0.538234 1.000000 0.000000 0.000000
-0.063920 -0.391502 -0.562228 1.000000 0.000000 0.000000
-0.039917 0.210232 0.508505 1.000000 0.000000 0.000000
-0.560209 0.180493 -0.102430 1.000000 0.000000 0.000000
-0.531801 0.473906 0.042535 1.000000 0.000000 0.000000
0.164907 0.349001 0.516693 1.000000 0.000000 0.000000
-0.100653 0.368290 0.529314 1.000000 0.000000 0.000000
0.518274 0.200804 -0.259916 1.000000 0.000000 0.000000
0.325092 0.005603 0.436820 1.000000 0.000000 0.000000
0.422709 0.688240 0.305563 1.000000 0.000000 0.000000
-0.047615 -0.429329 -0.593179 1.000000 0.000000 0.000000
0.087094 -0.430221 -0.588302 1.000000 0.000000 0.000000
-0.011967 -0.274793 -0.597872 1.000000 0.000000 0.000000
0.161822 0.625414 -0.574853 1.000000 0.000000 0.000000
-0.525916 0.476318 0.087240 1.000000 0.000000 0.000000
-0.109869 0.576388 0.499295 1.000000 0.000000 0.000000
-0.526981 0.454258 0.176137 1.000000 0.000000 0.000000
0.482170 -0.290857 -0.331868 1.000000 0.000000 0.000000
-0.004608 -0.328084 -0.598841 1.000000 0.000000 0.000000
0.360447 0.555376 -0.430578 1.000000 0.000000 0.000000
0.495279 0.681180 -0.314784 1.000000 0.000000 0.000000
0.551151 0.445239 -0.180543 1.000000 0.000000 0.000000
0.472797 0.625898 -0.295078 1.000000 0.000000 0.000000
0.000526 0.259263 0.542634 1.000000 0.000000 0.000000
-0.467445 0.030851 -0.347886 1.000000 0.000000 0.000000
-0.509591 0.682685 0.218121 1.000000 0.000000 0.000000
-0.197479 0.213653 0.471281 1.000000 0.000000 0.000000
-0.461296 0.241386 -0.308989 1.000000 0.000000 0.000000
-0.413671 0.291866 0.361083 1.000000 0.000000 0.000000
-0.486991 -0.185623 0.198056 1.000000 0.000000 0.000000
0.504880 0.770984 -0.217624 1.000000 0.000000 0.000000
0.058981 -0.534333 0.108774 1.000000 0.000000 0.000000
0.194077 -0.149032 0.473698 1.000000 0.000000 0.000000
-0.249344 -0.534333 0.325760 1.000000 0.000000 0.000000
0.035955 -0.074536 -0.595035 1.000000 0.000000 0.000000
-0.510244 -0.605728 -0.227680 1.000000 0.000000 0.000000
0.535743 -0.229082 -0.217742 1.000000 0.000000 0.000000
-0.157217 -0.042470 -0.544842 1.000000 0.000000 0.000000
0.193431 0.745258 0.504878 1.000000 0.000000 0.000000
0.070594 0.415889 0.665554 0.000000 1.000000 0.000000
0.309802 0.429757 -0.505435 1.000000 0.000000 0.000000
0.565179 0.036172 -0.083164 1.000000 0.000000 0.000000
-0.128430 -0.605728 -0.504534 1.000000 0.000000 0.000000
-0.281284 0.044626 0.467480 1.000000 0.000000 0.000000
0.070183 0.447040 0.521062 0.000000 1.000000 0.000000
-0.536994 -0.318380 0.003090 1.000000 0.000000 0.000000
0.308074 -0.534333 -0.279343 1.000000 0.000000 0.000000
-0.136183 -0.152532 -0.552715 1.000000 0.000000 0.000000
0.516338 0.506749 0.207705 1.000000 0.000000 0.000000
-0.148150 0.741457 -0.579509 1.000000 0.000000 0.000000
-0.471678 0.610597 -0.342370 1.000000 0.000000 0.000000
-0.194654 0.510463 -0.560246 1.000000 0.000000 0.000000
-0.528807 -0.300825 0.065276 1.000000 0.000000 0.000000
0.007994 -0.605728 -0.578756 1.000000 0.000000 0.000000
0.558368 -0.169846 0.078016 1.000000 0.000000 0.000000
-0.408539 0.383585 0.320860 1.000000 0.000000 0.000000
0.466859 -0.258991 0.248025 1.000000 0.000000 0.000000
-0.433232 -0.534333 0.177859 1.000000 0.000000 0.000000
0.040685 0.224660 0.537529 1.000000 0.000000 0.000000
0.435771 -0.233226 0.335453 1.000000 0.000000 0.000000
-0.335221 0.450403 0.427181 1.000000 0.000000 0.000000
0.234440 0.684641 -0.513863 1.000000 0.000000 0.000000
-0.523352 0.449540 -0.163599 1.000000 0.000000 0.000000
0.499928 0.712586 -0.229580 1.000000 0.000000 0.000000
0.054207 0.309955 0.873360 0.000000 1.000000 0.000000
-0.207973 0.129529 0.466935 1.000000 0.000000 0.000000
-0.108745 0.132657 0.528248 1.000000 0.000000 0.000000
0.087430 -0.585211 -0.588258 1.000000 0.000000 0.000000
-0.417628 0.806652 -0.412809 1.000000 0.000000 0.000000
-0.175219 -0.190679 -0.568297 1.000000 0.000000 0.000000
-0.467924 0.648841 0.290379 1.000000 0.000000 0.000000
0.423385 -0.199662 0.351595 1.000000 0.000000 0.000000
0.070584 -0.255964 0.585337 0.000000 1.000000 0.000000
-0.404332 -0.534333 0.099686 1.000000 0.000000 0.000000
0.040070 -0.092011 -0.565688 1.000000 0.000000 0.000000
0.063914 0.058478 0.839985 0.000000 1.000000 0.000000
0.258149 0.611704 0.447159 1.000000 0.000000 0.000000
0.356159 0.312971 0.376984 1.000000 0.000000 0.000000
-0.449133 -0.605728 -0.214202 1.000000 0.000000 0.000000
0.133650 0.034092 -0.553368 1.000000 0.000000 0.000000
0.263817 0.736548 -0.532606 1.000000 0.000000 0.000000
0.528214 0.695918 0.179035 1.000000 0.000000 0.000000
-0.150291 -0.534333 0.378074 1.000000 0.000000 0.000000
0.505090 0.609211 -0.217116 1.000000 0.000000 0.000000
-0.565304 0.158471 0.006845 1.000000 0.000000 0.000000
0.542391 0.065875 -0.037458 1.000000 0.000000 0.000000
-0.098990 0.284398 0.529533 1.000000 0.000000 0.000000
-0.216888 -0.586733 -0.551037 1.000000 0.000000 0.000000
0.229185 -0.605728 -0.048516 1.000000 0.000000 0.000000
-0.447144 0.122671 -0.374343 1.000000 0.000000 0.000000
-0.009609 0.106521 0.949884 0.000000 1.000000 0.000000
-0.529031 0.214155 -0.120462 1.000000 0.000000 0.000000
-0.171749 0.788486 -0.538823 1.000000 0.000000 0.000000
0.297241 -0.543138 -0.515074 1.000000 0.000000 0.000000
0.021048 0.736537 0.511309 1.000000 0.000000 0.000000
0.309876 -0.005067 -0.505378 1.000000 0.000000 0.000000
0.503344 0.353910 0.164449 1.000000 0.000000 0.000000
-0.474384 -0.605728 -0.064280 1.000000 0.000000 0.000000
-0.453742 0.687366 0.308861 1.000000 0.000000 0.000000
0.235334 0.011760 0.487521 1.000000 0.000000 0.000000
-0.470337 -0.534333 0.081581 1.000000 0.000000 0.000000
0.475045 0.626395 -0.341152 1.000000 0.000000 0.000000
-0.215118 -0.605728 -0.462335 1.000000 0.000000 0.000000
0.387136 0.295948 0.351923 1.000000 0.000000 0.000000
-0.453744 0.395100 -0.318831 1.000000 0.000000 0.000000
0.540407 0.738440 -0.052529 1.000000 0.000000 0.000000
0.390188 0.375510 -0.404828 1.000000 0.000000 0.000000
-0.395495 -0.605728 -0.114215 1.000000 0.000000 0.000000
0.038528 0.450085 0.537813 1.000000 0.000000 0.000000
-0.279899 -0.534333 -0.405666 1.000000 0.000000 0.000000
-0.409999 0.297526 -0.375840 1.000000 0.000000 0.000000
0.520637 0.296043 -0.254210 1.000000 0.000000 0.000000
-0.213975 -0.332371 -0.521333 1.000000 0.000000 0.000000
-0.538754 -0.351101 -0.010277 1.000000 0.000000 0.000000
-0.149141 -0.605728 0.409068 1.000000 0.000000 0.000000
0.476066 0.061217 0.230303 1.000000 0.000000 0.000000
0.459827 -0.605728 0.272187 1.000000 0.000000 0.000000
0.091178 0.331263 -0.587764 1.000000 0.000000 0.000000
-0.175358 0.049399 -0.568239 1.000000 0.000000 0.000000
0.444511 0.391075 -0.380945 1.000000 0.000000 0.000000
0.226115 -0.605728 -0.387398 1.000000 0.000000 0.000000
-0.094038 0.585033 -0.558263 1.000000 0.000000 0.000000
-0.406106 0.344994 -0.427824 1.000000 0.000000 0.000000
0.146745 0.766960 -0.580449 1.000000 0.000000 0.000000
-0.217789 -0.125660 0.462869 1.000000 0.000000 0.000000
0.535004 -0.361309 0.036679 1.000000 0.000000 0.000000
0.239375 0.590873 -0.542730 1.000000 0.000000 0.000000
-0.437530 -0.355486 -0.339961 1.000000 0.000000 0.000000
0.097207 0.282634 -0.558166 1.000000 0.000000 0.000000
0.208535 0.557026 -0.524593 1.000000 0.000000 0.000000
0.456141 0.051462 -0.365789 1.000000 0.000000 0.000000
0.021531 -0.176575 -0.568129 1.000000 0.000000 0.000000
0.530980 -0.041594 -0.124131 1.000000 0.000000 0.000000
0.545316 -0.097579 0.137747 1.000000 0.000000 0.000000
-0.499244 0.474988 0.168475 1.000000 0.000000 0.000000
-0.245846 0.645921 0.451248 1.000000 0.000000 0.000000
-0.520414 0.301208 0.191992 1.000000 0.000000 0.000000
0.439538 -0.152260 -0.340514 1.000000 0.000000 0.000000
-0.540483 0.663376 -0.023412 1.000000 0.000000 0.000000
-0.518230 0.446428 0.122639 1.000000 0.000000 0.000000
0.532036 -0.417822 -0.116110 1.000000 0.000000 0.000000
0.036351 0.373134 0.647681 0.000000 1.000000 0.000000
-0.539444 -0.092959 -0.015522 1.000000 0.000000 0.000000
0.547046 -0.058731 -0.190453 1.000000 0.000000 0.000000
-0.128488 0.475388 0.525649 1.000000 0.000000 0.000000
0.571321 -0.518042 -0.036506 1.000000 0.000000 0.000000
0.424621 0.539121 -0.406866 1.000000 0.000000 0.000000
0.246249 -0.380645 -0.539883 1.000000 0.000000 0.000000
0.206462 -0.605728 -0.485173 1.000000 0.000000 0.000000
-0.068791 0.447219 0.656953 0.000000 1.000000 0.000000
-0.043003 0.224837 -0.564982 1.000000 0.000000 0.000000
0.502926 0.672671 0.240085 1.000000 0.000000 0.000000
-0.540757 0.596509 -0.025491 1.000000 0.000000 0.000000
-0.482442 0.038838 -0.265923 1.000000 0.000000 0.000000
-0.531954 0.628871 -0.098257 1.000000 0.000000 0.000000
0.139537 -0.605728 0.241683 1.000000 0.000000 0.000000
0.446540 0.480190 0.274506 1.000000 0.000000 0.000000
0.051155 0.488124 -0.564229 1.000000 0.000000 0.000000
-0.168861 0.442068 -0.570930 1.000000 0.000000 0.000000
0.566880 -0.135983 0.013356 1.000000 0.000000 0.000000
0.180623 0.551181 -0.567066 1.000000 0.000000 0.000000
-0.090717 -0.244978 -0.558700 1.000000 0.000000 0.000000
-0.522678 -0.455835 0.186526 1.000000 0.000000 0.000000
0.041971 0.095202 -0.565438 1.000000 0.000000 0.000000
-0.013503 0.227847 0.931236 0.000000 1.000000 0.000000
0.070015 0.663160 -0.590550 1.000000 0.000000 0.000000
-0.530099 -0.108669 0.055465 1.000000 0.000000 0.000000
-0.434206 -0.262322 0.334321 1.000000 0.000000 0.000000
0.392368 -0.375920 -0.401987 1.000000 0.000000 0.000000
0.277543 0.109607 0.437308 1.000000 0.000000 0.000000
0.089296 -0.261423 -0.588012 1.000000 0.000000 0.000000
-0.194182 -0.158799 -0.560442 1.000000 0.000000 0.000000
-0.410826 -0.495653 -0.421673 1.000000 0.000000 0.000000
-0.486974 -0.029469 0.265552 1.000000 0.000000 0.000000
-0.412054 -0.125374 -0.420073 1.000000 0.000000 0.000000
0.051886 0.207478 -0.592937 1.000000 0.000000 0.000000
0.527022 -0.022197 0.097313 1.000000 0.000000 0.000000
0.338405 0.765097 -0.483488 1.000000 0.000000 0.000000
-0.133599 -0.197084 0.524976 1.000000 0.000000 0.000000
-0.066325 0.302694 0.792672 0.000000 1.000000 0.000000
-0.306022 -0.201796 -0.470473 1.000000 0.000000 0.000000
-0.433176 -0.131788 0.288751 1.000000 0.000000 0.000000
0.248749 -0.025015 -0.538847 1.000000 0.000000 0.000000
0.331772 -0.605728 -0.322938 1.000000 0.000000 0.000000
-0.536016 0.329771 0.010516 1.000000 0.000000 0.000000
0.379353 -0.176455 -0.452067 1.000000 0.000000 0.000000
0.242413 0.508686 0.484588 1.000000 0.000000 0.000000
-0.299445 -0.176745 0.418636 1.000000 0.000000 0.000000
0.184291 0.100344 0.477751 1.000000 0.000000 0.000000
-0.416711 -0.605728 0.144068 1.000000 0.000000 0.000000
-0.297224 0.257309 -0.513221 1.000000 0.000000 0.000000
0.309932 0.674713 -0.469339 1.000000 0.000000 0.000000
0.346302 0.487821 0.420545 1.000000 0.000000 0.000000
0.526565 0.748304 -0.157663 1.000000 0.000000 0.000000
-0.176344 0.457114 0.510948 1.000000 0.000000 0.000000
-0.363402 -0.352882 -0.462440 1.000000 0.000000 0.000000
-0.136392 -0.534333 -0.223673 1.000000 0.000000 0.000000
-0.439417 -0.275879 -0.337502 1.000000 0.000000 0.000000
-0.529606 -0.363361 0.169800 1.000000 0.000000 0.000000
-0.489455 0.268298 -0.248992 1.000000 0.000000 0.000000
-0.385583 -0.605728 0.034639 1.000000 0.000000 0.000000
-0.534997 0.280057 -0.213668 1.000000 0.000000 0.000000
-0.487018 -0.424306 0.197992 1.000000 0.000000 0.000000
0.228970 -0.108404 0.490157 1.000000 0.000000 0.000000
-0.406396 -0.392124 -0.427447 1.000000 0.000000 0.000000
0.445901 0.159488 -0.379134 1.000000 0.000000 0.000000
0.534766 0.141843 0.163216 1.000000 0.000000 0.000000
0.220647 -0.287477 0.462693 1.000000 0.000000 0.000000
-0.051521 -0.534333 0.433097 1.000000 0.000000 0.000000
-0.455123 -0.022871 -0.363945 1.000000 0.000000 0.000000
0.282997 -0.328452 -0.524661 1.000000 0.000000 0.000000
0.523570 0.069260 0.115618 1.000000 0.000000 0.000000
0.442157 0.822188 0.315272 1.000000 0.000000 0.000000
-0.229966 0.786498 -0.514709 1.000000 0.000000 0.000000
-0.468681 0.411633 -0.346276 1.000000 0.000000 0.000000
-0.035518 0.557258 -0.565967 1.000000 0.000000 0.000000
-0.526665 -0.157781 0.176902 1.000000 0.000000 0.000000
0.445684 0.559587 -0.379416 1.000000 0.000000 0.000000
0.322060 -0.301450 0.439147 1.000000 0.000000 0.000000
-0.107652 0.095498 0.499587 1.000000 0.000000 0.000000
-0.034089 0.331149 -0.594960 1.000000 0.000000 0.000000
0.192404 -0.306633 -0.531275 1.000000 0.000000 0.000000
-0.502265 0.374166 0.161183 1.000000 0.000000 0.000000
0.524486 0.571744 0.188035 1.000000 0.000000 0.000000
-0.438438 0.325504 0.328806 1.000000 0.000000 0.000000
-0.565578 0.361099 0.004769 1.000000 0.000000 0.000000
-0.282394 -0.485252 0.431720 1.000000 0.000000 0.000000
-0.499510 -0.267384 0.242458 1.000000 0.000000 0.000000
-0.002150 -0.488032 -0.570360 1.000000 0.000000 0.000000
0.047243 0.396539 0.507860 1.000000 0.000000 0.000000
-0.035979 0.499048 0.661702 0.000000 1.000000 0.000000
0.519423 0.132454 0.125629 1.000000 0.000000 0.000000
-0.294075 0.484638 0.422757 1.000000 0.000000 0.000000
-0.501682 0.548548 -0.294098 1.000000 0.000000 0.000000
0.527980 -0.055062 0.090031 1.000000 0.000000 0.000000
0.145389 -0.159493 -0.550749 1.000000 0.000000 0.000000
0.137810 0.800473 0.495937 1.000000 0.000000 0.000000
-0.395134 0.477005 -0.395212 1.000000 0.000000 0.000000
0.557029 0.764280 -0.145065 1.000000 0.000000 0.000000
0.523793 -0.394020 -0.246592 1.000000 0.000000 0.000000
0.060605 0.616317 0.534906 1.000000 0.000000 0.000000
-0.142257 -0.018793 0.494155 1.000000 0.000000 0.000000
0.557258 0.781754 0.086445 1.000000 0.000000 0.000000
0.536881 0.320016 -0.214995 1.000000 0.000000 0.000000
0.558716 -0.342195 0.075366 1.000000 0.000000 0.000000
0.149821 0.466832 -0.579825 1.000000 0.000000 0.000000
0.569182 -0.488281 -0.052754 1.000000 0.000000 0.000000
0.413692 0.410590 -0.421109 1.000000 0.000000 0.000000
0.294608 -0.571880 0.460211 1.000000 0.000000 0.000000
-0.385600 -0.455814 0.350754 1.000000 0.000000 0.000000
-0.115179 -0.457470 0.498596 1.000000 0.000000 0.000000
0.096055 -0.605728 -0.170066 1.000000 0.000000 0.000000
0.415345 -0.461307 0.315159 1.000000 0.000000 0.000000
0.561902 -0.059146 0.051171 1.000000 0.000000 0.000000
-0.186248 -0.534333 0.378015 1.000000 0.000000 0.000000
0.533848 0.822188 -0.102928 1.000000 0.000000 0.000000
0.373143 -0.605728 0.387860 1.000000 0.000000 0.000000
0.208051 -0.134369 -0.524794 1.000000 0.000000 0.000000
0.524297 -0.445027 -0.245374 1.000000 0.000000 0.000000
0.158267 -0.605728 -0.107864 1.000000 0.000000 0.000000
0.526603 -0.166324 0.100497 1.000000 0.000000 0.000000
0.329555 -0.487510 -0.490278 1.000000 0.000000 0.000000
-0.145791 0.066737 0.523371 1.000000 0.000000 0.000000
-0.331167 -0.119204 0.394295 1.000000 0.000000 0.000000
0.540005 0.728325 0.150569 1.000000 0.000000 0.000000
0.023208 0.383844 0.607720 0.000000 1.000000 0.000000
-0.500270 -0.258347 -0.222881 1.000000 0.000000 0.000000
0.488281 0.730552 -0.323904 1.000000 0.000000 0.000000
-0.520132 -0.060084 -0.249556 1.000000 0.000000 0.000000
0.534398 -0.185748 -0.098168 1.000000 0.000000 0.000000
-0.485307 0.742160 -0.324609 1.000000 0.000000 0.000000
0.511764 -0.265832 0.144120 1.000000 0.000000 0.000000
0.437766 0.123598 -0.389735 1.000000 0.000000 0.000000
-0.391940 0.473771 0.342491 1.000000 0.000000 0.000000
0.181054 -0.215129 0.479092 1.000000 0.000000 0.000000
0.169134 0.293905 0.484030 1.000000 0.000000 0.000000
0.529629 0.801221 0.077511 1.000000 0.000000 0.000000
0.108156 -0.534333 -0.222873 1.000000 0.000000 0.000000
-0.095002 -0.605728 0.343719 1.000000 0.000000 0.000000
0.530991 0.224777 0.172331 1.000000 0.000000 0.000000
0.328890 -0.534333 0.312065 1.000000 0.000000 0.000000
0.233954 -0.409146 -0.544975 1.000000 0.000000 0.000000
-0.383115 0.423436 -0.410875 1.000000 0.000000 0.000000
0.023107 -0.220673 0.519463 0.000000 1.000000 0.000000
-0.185067 -0.605728 0.008415 1.000000 0.000000 0.000000
-0.569700 -0.304499 -0.026544 1.000000 0.000000 0.000000
-0.474611 0.677835 -0.338548 1.000000 0.000000 0.000000
0.180293 -0.534333 0.123725 1.000000 0.000000 0.000000
0.483601 0.156630 -0.268996 1.000000 0.000000 0.000000
-0.046350 -0.134426 0.536463 1.000000 0.000000 0.000000
-0.299012 -0.255088 -0.475852 1.000000 0.000000 0.000000
0.016157 -0.534333 0.188347 1.000000 0.000000 0.000000
0.440435 0.459680 0.329374 1.000000 0.000000 0.000000
0.419092 -0.592195 -0.414073 1.000000 0.000000 0.000000
0.447439 0.172231 -0.330218 1.000000 0.000000 0.000000
-0.051618 -0.063338 0.778361 0.000000 1.000000 0.000000
-0.498099 -0.214640 -0.302748 1.000000 0.000000 0.000000
0.166847 -0.390834 0.515889 1.000000 0.000000 0.000000
0.135741 0.574356 -0.553093 1.000000 0.000000 0.000000
-0.101605 -0.534333 0.390871 1.000000 0.000000 0.000000
0.523275 -0.543703 -0.247843 1.000000 0.000000 0.000000
-0.397169 -0.210673 0.379646 1.000000 0.000000 0.000000
-0.550944 -0.181962 -0.172806 1.000000 0.000000 0.000000
-0.098116 0.633568 0.500842 1.000000 0.000000 0.000000
-0.401050 0.032596 0.330619 1.000000 0.000000 0.000000
0.251209 -0.122497 -0.537828 1.000000 0.000000 0.000000
0.508335 0.818014 -0.283911 1.000000 0.000000 0.000000
0.295132 -0.020032 -0.480695 1.000000 0.000000 0.000000
-0.072371 -0.331806 -0.589920 1.000000 0.000000 0.000000
0.525597 0.343215 0.108132 1.000000 0.000000 0.000000
-0.099771 0.554428 0.529430 1.000000 0.000000 0.000000
-0.219583 -0.199714 0.493037 1.000000 0.000000 0.000000
-0.208788 0.781952 0.497509 1.000000 0.000000 0.000000
-0.553686 -0.423740 -0.151976 1.000000 0.000000 0.000000
0.096867 0.790096 -0.558211 1.000000 0.000000 0.000000
0.170398 -0.019930 -0.571301 1.000000 0.000000 0.000000
-0.371518 0.250606 -0.456212 1.000000 0.000000 0.000000
-0.132917 0.448515 0.496261 1.000000 0.000000 0.000000
0.293315 -0.312752 -0.482090 1.000000 0.000000 0.000000
0.558934 -0.497844 0.073716 1.000000 0.000000 0.000000
-0.389550 -0.135589 -0.442376 1.000000 0.000000 0.000000
-0.148708 0.209670 0.491483 1.000000 0.000000 0.000000
-0.111232 -0.088203 -0.584804 1.000000 0.000000 0.000000
0.034568 -0.296027 0.529384 0.000000 1.000000 0.000000
-0.096343 0.320184 0.501076 1.000000 0.000000 0.000000
-0.444136 0.523424 0.321380 1.000000 0.000000 0.000000
-0.537699 -0.605728 -0.174684 1.000000 0.000000 0.000000
0.331426 0.100005 -0.452846 1.000000 0.000000 0.000000
0.310561 -0.574391 -0.504853 1.000000 0.000000 0.000000
