ply
format ascii 1.0
element vertex 616
property float x
property float y
property float z
property float nx
property float ny
property float nz
property uchar red
property uchar green
property uchar blue
property float opacity
end_header
-0.543591 -0.267418 0.136038 0.957323 0.000000 -0.289020 255 255 255 1.000000
0.291508 0.294702 0.462590 -0.508906 0.000000 -0.860822 255 255 255 1.000000
0.070458 0.052860 0.856486 -0.973569 -0.042487 0.224407 255 255 255 1.000000
-0.092804 -0.119859 0.530347 -0.165925 0.000000 0.986138 255 255 255 1.000000
-0.326185 -0.419927 -0.455001 0.608868 0.000000 0.793272 255 255 255 1.000000
0.556175 -0.481692 -0.151551 0.976267 0.000000 -0.216569 255 255 255 1.000000
0.161019 -0.534333 0.041187 0.000000 -1.000000 0.000000 255 255 255 1.000000
-0.338162 0.138438 0.388928 -0.630890 0.000000 0.775873 255 255 255 1.000000
-0.339969 -0.534333 0.235578 0.000000 1.000000 0.000000 255 255 255 1.000000
0.282520 0.342693 0.433490 -0.520120 0.000000 -0.854093 255 255 255 1.000000
-0.233560 -0.605728 0.338683 0.000000 1.000000 0.000000 255 255 255 1.000000
-0.444485 0.470914 -0.377809 -0.787027 0.000000 -0.616918 255 255 255 1.000000
0.319678 -0.605728 -0.171057 0.000000 -1.000000 0.000000 255 255 255 1.000000
-0.071602 -0.320576 -0.590021 0.128590 0.000000 0.991698 255 255 255 1.000000
0.357287 -0.176123 -0.468999 -0.628590 0.000000 0.777737 255 255 255 1.000000
-0.507813 -0.519472 0.147786 0.944971 0.000000 -0.327153 255 255 255 1.000000
0.498456 0.171004 -0.233134 -0.924713 0.000000 0.380664 255 255 255 1.000000
-0.561598 0.622454 -0.091886 0.993706 0.000000 0.112017 255 255 255 1.000000
-0.014779 0.286313 -0.568698 -0.029593 0.000000 -0.999562 255 255 255 1.000000
0.565417 0.376470 0.024471 0.995631 0.000000 0.093374 255 255 255 1.000000
0.454027 0.362224 -0.321632 0.839405 0.000000 -0.543506 255 255 255 1.000000
-0.537486 0.670051 -0.207660 0.948868 0.000000 0.315674 255 255 255 1.000000
-0.114060 -0.098991 0.498744 0.213617 0.000000 -0.976918 255 255 255 1.000000
-0.501973 0.543215 -0.293396 0.884833 0.000000 0.465909 255 255 255 1.000000
-0.010058 0.134611 -0.598124 0.019787 0.000000 0.999804 255 255 255 1.000000
0.494958 -0.508806 -0.241577 0.918111 0.000000 -0.396324 255 255 255 1.000000
0.305833 -0.529313 -0.508481 0.535795 0.000000 -0.844348 255 255 255 1.000000
-0.017250 0.494309 0.540294 -0.032452 0.000000 0.999473 255 255 255 1.000000
-0.185581 -0.175211 0.476210 0.347133 0.000000 -0.937816 255 255 255 1.000000
0.400609 0.456122 -0.435757 -0.700129 0.000000 0.714016 255 255 255 1.000000
-0.238977 0.045141 0.454093 0.445619 0.000000 -0.895223 255 255 255 1.000000
-0.045879 -0.504570 0.507720 0.087501 0.000000 -0.996164 255 255 255 1.000000
0.325651 0.343247 -0.457278 0.603337 0.000000 -0.797487 255 255 255 1.000000
0.436432 -0.534333 0.096750 0.000000 -1.000000 0.000000 255 255 255 1.000000
0.329814 -0.138659 0.397199 -0.611091 0.000000 -0.791560 255 255 255 1.000000
-0.297121 0.478361 -0.477303 0.553539 0.000000 0.832823 255 255 255 1.000000
-0.467161 -0.534333 -0.001084 0.000000 -1.000000 0.000000 255 255 255 1.000000
-0.027510 0.097604 0.814021 -0.407136 0.031540 -0.912823 255 255 255 1.000000
-0.567797 0.158146 -0.044794 0.999587 0.000000 0.028727 255 255 255 1.000000
0.389598 -0.219604 -0.444206 0.682633 0.000000 -0.730762 255 255 255 1.000000
0.118804 -0.534333 -0.474436 0.000000 1.000000 0.000000 255 255 255 1.000000
-0.063866 0.605003 0.505352 0.121027 0.000000 -0.992649 255 255 255 1.000000
0.454313 -0.057911 0.264376 -0.839877 0.000000 -0.542777 255 255 255 1.000000
-0.380009 -0.250537 0.356817 -0.703376 0.000000 0.710818 255 255 255 1.000000
0.525649 0.250354 -0.164625 0.967898 0.000000 -0.251342 255 255 255 1.000000
0.330445 -0.070190 0.396716 -0.612260 0.000000 -0.790656 255 255 255 1.000000
0.473793 -0.411141 0.235793 0.872827 0.000000 0.488029 255 255 255 1.000000
0.305156 -0.436486 0.416120 -0.564388 0.000000 -0.825510 255 255 255 1.000000
-0.498363 0.295881 0.245228 0.877029 0.000000 -0.480438 255 255 255 1.000000
-0.156703 0.120100 -0.575967 0.277126 0.000000 0.960833 255 255 255 1.000000
-0.070652 -0.534333 0.191133 0.000000 1.000000 0.000000 255 255 255 1.000000
0.448878 0.812656 0.271459 -0.830798 0.000000 -0.556574 255 255 255 1.000000
-0.429361 -0.290019 0.340636 0.759247 0.000000 -0.650803 255 255 255 1.000000
-0.272666 0.216481 -0.527933 -0.480789 0.000000 -0.876836 162 162 162 1.000000
-0.535936 0.536788 -0.068011 0.997298 0.000000 0.073466 255 255 255 1.000000
0.225714 0.424194 -0.517478 0.417201 0.000000 -0.908814 255 255 255 1.000000
-0.529747 0.243117 -0.226345 -0.937028 0.000000 -0.349254 253 253 253 1.000000
0.290276 -0.012985 0.427538 -0.535412 0.000000 -0.844591 255 255 255 1.000000
-0.205637 0.593839 -0.555697 0.365220 0.000000 0.930921 255 255 255 1.000000
-0.076141 0.665598 0.503736 0.143848 0.000000 -0.989600 255 255 255 1.000000
0.542139 0.399230 -0.202299 -0.952034 0.000000 0.305991 255 255 255 1.000000
0.251556 -0.534333 0.443105 0.000000 -1.000000 0.000000 255 255 255 1.000000
0.440289 -0.253373 -0.386448 0.775024 0.000000 -0.631932 255 255 255 1.000000
0.041350 0.167950 -0.565520 0.074518 0.000000 -0.997220 255 255 255 1.000000
-0.340679 -0.605728 -0.268168 0.000000 1.000000 0.000000 255 255 255 1.000000
0.194048 -0.104440 -0.530594 0.358488 0.000000 -0.933534 255 255 255 1.000000
-0.067388 0.760349 0.504888 -0.127582 0.000000 0.991828 255 255 255 1.000000
-0.208987 -0.418468 0.497426 0.371172 0.000000 -0.928564 255 255 255 1.000000
-0.528328 -0.156589 -0.125801 -0.983515 0.000000 -0.180825 255 255 255 1.000000
-0.510368 0.620782 -0.273129 0.902123 0.000000 0.431480 255 255 255 1.000000
0.149885 -0.342031 0.522915 -0.260343 0.000000 -0.965516 255 255 255 1.000000
-0.566960 0.215257 -0.051151 -0.999202 0.000000 -0.039937 254 254 254 1.000000
-0.532651 -0.174082 -0.092967 0.992775 0.000000 0.119990 255 255 255 1.000000
-0.533305 0.754459 -0.217753 0.942626 0.000000 0.333850 255 255 255 1.000000
-0.397325 -0.336840 -0.436411 0.698793 0.000000 0.715324 255 255 255 1.000000
0.431857 0.532341 -0.350525 -0.800800 0.000000 0.598932 255 255 255 1.000000
0.484645 0.224376 -0.328642 -0.849529 0.000000 0.527542 255 255 255 1.000000
0.035780 0.382053 0.625536 -0.488228 0.816986 0.306868 255 255 255 1.000000
0.474984 -0.491535 0.232916 -0.875602 0.000000 -0.483034 255 255 255 1.000000
-0.244180 -0.501672 0.451937 -0.454919 0.000000 0.890533 255 255 255 1.000000
-0.166377 0.018688 -0.571959 -0.294660 0.000000 -0.955602 255 255 255 1.000000
0.014842 0.510901 0.656198 0.193256 0.931755 0.307384 255 255 255 1.000000
-0.048882 0.459047 -0.564208 -0.093101 0.000000 -0.995657 255 255 255 1.000000
0.046036 -0.056167 -0.564903 -0.083257 0.000000 0.996528 255 255 255 1.000000
-0.507112 0.278803 -0.206363 0.943855 0.000000 0.330361 255 255 255 1.000000
0.070911 -0.231980 0.660150 -0.983503 0.164232 -0.075828 255 255 255 1.000000
-0.492061 0.573370 0.258923 -0.864069 0.000000 0.503374 255 255 255 1.000000
-0.052781 -0.568378 -0.592499 0.095295 0.000000 0.995449 255 255 255 1.000000
-0.292430 -0.534333 -0.223068 0.000000 -1.000000 0.000000 255 255 255 1.000000
-0.000775 -0.190661 -0.599346 -0.003488 0.000000 -0.999994 255 255 255 1.000000
0.086676 0.438278 -0.559552 0.158865 0.000000 -0.987300 255 255 255 1.000000
0.365825 0.002412 -0.462448 0.643237 0.000000 -0.765667 255 255 255 1.000000
0.134650 -0.102320 -0.582041 -0.234319 0.000000 0.972160 255 255 255 1.000000
-0.340481 0.306869 -0.480029 -0.603393 0.000000 -0.797444 255 255 255 1.000000
-0.534278 0.535223 0.158522 -0.944110 0.000000 0.329629 255 255 255 1.000000
0.513740 0.806782 0.139350 0.950366 0.000000 0.311134 255 255 255 1.000000
-0.509669 0.149841 0.143308 0.947871 0.000000 -0.318655 255 255 255 1.000000
0.388257 0.122725 -0.407344 0.714580 0.000000 -0.699554 255 255 255 1.000000
-0.487944 -0.218728 -0.252638 0.909066 0.000000 0.416651 255 255 255 1.000000
0.444496 0.607474 -0.380965 -0.782675 0.000000 0.622431 255 255 255 1.000000
-0.494494 -0.285155 0.254568 -0.868434 0.000000 0.495804 255 255 255 1.000000
-0.532019 0.167656 0.163974 -0.940633 0.000000 0.339424 255 255 255 1.000000
-0.420894 -0.605728 0.124730 0.000000 1.000000 0.000000 255 255 255 1.000000
-0.020481 0.591203 -0.567947 -0.040185 0.000000 -0.999192 255 255 255 1.000000
-0.286366 0.410759 -0.485556 -0.532507 0.000000 -0.846425 255 255 255 1.000000
0.005511 0.346440 0.678747 0.060892 -0.835380 -0.546290 255 255 255 1.000000
0.313234 -0.605728 -0.405480 0.000000 1.000000 0.000000 255 255 255 1.000000
-0.087481 -0.487506 -0.559126 0.164851 0.000000 0.986318 255 255 255 1.000000
-0.363099 0.091957 0.405790 0.642738 0.000000 -0.766086 255 255 255 1.000000
-0.165777 0.748271 -0.572208 -0.293572 0.000000 -0.955937 255 255 255 1.000000
-0.537036 0.327075 -0.059658 -0.998322 0.000000 -0.057899 255 255 255 1.000000
0.522067 -0.007422 0.119249 0.962070 0.000000 0.272801 255 255 255 1.000000
-0.385627 0.460839 -0.407602 -0.714164 0.000000 -0.699979 255 255 255 1.000000
0.516952 0.820331 -0.263107 -0.910207 0.000000 0.414154 255 255 255 1.000000
-0.517668 0.028318 0.123994 -0.959454 0.000000 0.281865 255 255 255 1.000000
-0.407818 -0.605728 0.024310 0.000000 1.000000 0.000000 255 255 255 1.000000
-0.269587 -0.249523 -0.529208 0.475678 0.000000 0.879619 255 255 255 1.000000
0.021304 0.473861 -0.596964 0.035311 0.000000 -0.999376 255 255 255 1.000000
0.490683 0.390703 0.195016 -0.909684 0.000000 -0.415301 255 255 255 1.000000
-0.347165 -0.569123 -0.474899 -0.615191 0.000000 -0.788378 255 255 255 1.000000
0.018100 -0.337527 -0.568581 -0.031242 0.000000 0.999512 255 255 255 1.000000
-0.451933 0.710473 0.311220 -0.800170 0.000000 0.599773 255 255 255 1.000000
0.029906 -0.605728 -0.166211 0.000000 -1.000000 0.000000 255 255 255 1.000000
-0.160595 -0.534333 -0.056296 0.000000 1.000000 0.000000 255 255 255 1.000000
0.064885 0.341784 0.829125 -0.899145 -0.259486 -0.352426 255 255 255 1.000000
0.196629 -0.425906 0.472641 -0.363330 0.000000 -0.931661 255 255 255 1.000000
-0.014288 -0.087696 -0.568762 -0.028682 0.000000 -0.999589 255 255 255 1.000000
-0.491024 -0.534333 0.061091 0.000000 -1.000000 0.000000 255 255 255 1.000000
-0.263050 0.719550 -0.501005 -0.488085 0.000000 -0.872796 255 255 255 1.000000
0.030297 0.391532 0.592319 -0.410672 0.882958 0.227449 255 255 255 1.000000
-0.463254 -0.605728 0.165889 0.000000 1.000000 0.000000 255 255 255 1.000000
-0.528745 -0.496198 -0.122635 0.984570 0.000000 0.174993 255 255 255 1.000000
-0.493182 0.592091 -0.239993 0.919370 0.000000 0.393394 255 255 255 1.000000
-0.165391 0.516101 -0.572368 -0.292874 0.000000 -0.956151 255 255 255 1.000000
-0.032627 0.317278 0.730159 0.475925 0.624900 0.618866 255 255 255 1.000000
0.246612 -0.451000 0.451938 0.454918 0.000000 0.890534 255 255 255 1.000000
0.502237 -0.440039 -0.224005 0.931550 0.000000 -0.363612 255 255 255 1.000000
0.070551 -0.077712 -0.590480 0.122435 0.000000 -0.992477 255 255 255 1.000000
-0.288259 -0.366771 0.463216 -0.507365 0.000000 0.861731 255 255 255 1.000000
-0.523080 0.593594 0.108777 -0.967416 0.000000 0.253193 255 255 255 1.000000
-0.519699 0.489646 -0.175975 -0.962155 0.000000 -0.272501 255 255 255 1.000000
0.534292 0.808091 -0.098972 0.991361 0.000000 -0.131165 255 255 255 1.000000
-0.169711 -0.605728 0.359937 0.000000 -1.000000 0.000000 255 255 255 1.000000
0.472296 0.055448 -0.296289 0.869308 0.000000 -0.494272 255 255 255 1.000000
0.420148 0.631095 -0.412696 -0.736950 0.000000 0.675947 255 255 255 1.000000
0.184982 -0.534333 -0.112913 0.000000 1.000000 0.000000 255 255 255 1.000000
0.283712 -0.534333 0.316563 0.000000 1.000000 0.000000 255 255 255 1.000000
0.077426 -0.133537 -0.589575 0.134578 0.000000 -0.990903 255 255 255 1.000000
0.002871 -0.150397 0.542507 -0.002898 0.000000 -0.999996 255 255 255 1.000000
0.509532 0.272030 -0.281020 -0.895537 0.000000 0.444987 255 255 255 1.000000
-0.245339 -0.585673 0.482369 0.434688 0.000000 -0.900581 255 255 255 1.000000
0.454425 -0.151082 0.311142 0.800273 0.000000 0.599636 255 255 255 1.000000
0.299084 -0.605728 -0.309601 0.000000 -1.000000 0.000000 255 255 255 1.000000
-0.463609 -0.059579 0.296002 -0.820005 0.000000 0.572356 255 255 255 1.000000
-0.564532 0.103595 0.012710 -0.997365 0.000000 0.072547 255 255 255 1.000000
-0.539594 -0.029088 -0.016658 0.999763 0.000000 -0.021783 255 255 255 1.000000
-0.536546 0.594687 -0.209930 -0.947496 0.000000 -0.319768 255 255 255 1.000000
-0.424710 0.588090 0.346697 0.750431 0.000000 -0.660949 255 255 255 1.000000
-0.232763 0.144614 0.456667 0.434431 0.000000 -0.900705 255 255 255 1.000000
0.270675 -0.605728 0.271834 0.000000 -1.000000 0.000000 255 255 255 1.000000
0.241459 0.040909 0.454072 -0.445708 0.000000 -0.895179 255 255 255 1.000000
-0.416166 0.715145 -0.414715 -0.733930 0.000000 -0.679226 255 255 255 1.000000
0.013756 -0.379281 0.541074 0.022013 0.000000 0.999758 255 255 255 1.000000
0.129409 -0.605728 -0.050253 0.000000 1.000000 0.000000 255 255 255 1.000000
-0.036923 0.023185 -0.565782 -0.070800 0.000000 -0.997491 255 255 255 1.000000
0.543184 0.083249 -0.025452 -0.999985 0.000000 -0.005516 255 255 255 1.000000
0.504659 -0.412808 -0.292784 0.885373 0.000000 -0.464882 255 255 255 1.000000
-0.358702 0.817541 -0.466047 0.635221 0.000000 0.772331 255 255 255 1.000000
-0.001936 0.278101 0.912054 -0.044750 0.399381 0.915692 255 255 255 1.000000
-0.520951 -0.474159 0.190697 0.922090 0.000000 -0.386975 255 255 255 1.000000
-0.353170 -0.346699 -0.434295 -0.657732 0.000000 -0.753252 255 255 255 1.000000
0.445215 -0.369420 -0.380028 0.783970 0.000000 -0.620799 255 255 255 1.000000
0.391516 0.776207 -0.403098 -0.721416 0.000000 0.692502 255 255 255 1.000000
0.354779 -0.497436 -0.470924 -0.624240 0.000000 0.781233 255 255 255 1.000000
0.543770 0.182146 -0.198361 0.954294 0.000000 -0.298869 254 254 254 1.000000
-0.495807 0.028205 0.251398 -0.871378 0.000000 0.490613 255 255 255 1.000000
-0.301975 -0.573842 0.452692 0.533135 0.000000 -0.846030 255 255 255 1.000000
0.363114 0.793964 0.407645 -0.638614 0.000000 -0.769528 255 255 255 1.000000
0.312670 -0.473735 -0.467239 -0.578808 0.000000 0.815464 255 255 255 1.000000
0.192605 0.812337 -0.562103 0.337580 0.000000 -0.941297 255 255 255 1.000000
-0.417254 0.502915 0.356414 0.736051 0.000000 -0.676926 255 255 255 1.000000
0.464487 0.110156 0.298028 -0.817421 0.000000 -0.576041 255 255 255 1.000000
-0.398784 0.300342 0.333573 0.741435 0.000000 -0.671025 255 255 255 1.000000
0.525997 0.482915 -0.161983 0.969115 0.000000 -0.246611 255 255 255 1.000000
-0.535657 0.390306 -0.070129 -0.996999 0.000000 -0.077414 255 255 255 1.000000
0.351852 0.281394 0.416286 -0.619138 0.000000 -0.785282 255 255 255 1.000000
-0.535483 0.663271 0.014566 -0.996805 0.000000 0.079878 255 255 255 1.000000
0.380003 0.702026 -0.415572 0.699363 0.000000 -0.714767 255 255 255 1.000000
-0.102855 -0.534333 0.382457 0.000000 1.000000 0.000000 255 255 255 1.000000
-0.053734 -0.605728 0.380452 0.000000 1.000000 0.000000 255 255 255 1.000000
0.174290 0.358354 -0.569689 -0.304575 0.000000 0.952488 255 255 255 1.000000
-0.539074 0.005442 -0.012708 0.999576 0.000000 -0.029108 255 255 255 1.000000
-0.402925 0.400608 -0.431971 0.707643 0.000000 0.706570 255 255 255 1.000000
0.112949 0.522280 -0.556093 0.207162 0.000000 -0.978307 255 255 255 1.000000
0.427144 0.082623 0.299784 -0.792094 0.000000 -0.610399 255 255 255 1.000000
0.501182 -0.534333 0.054190 0.000000 1.000000 0.000000 255 255 255 1.000000
-0.159179 -0.211485 -0.574941 0.281616 0.000000 0.959527 255 255 255 1.000000
-0.553136 0.079900 0.099275 0.974472 0.000000 -0.224508 255 255 255 1.000000
0.528109 0.473734 -0.236172 0.930308 0.000000 -0.366779 255 255 255 1.000000
-0.264140 -0.534333 -0.165239 0.000000 1.000000 0.000000 255 255 255 1.000000
-0.528644 0.634739 0.066513 0.984319 0.000000 -0.176397 255 255 255 1.000000
0.128613 -0.534333 -0.153509 0.000000 1.000000 0.000000 255 255 255 1.000000
-0.369205 0.082384 0.365107 -0.685387 0.000000 0.728179 255 255 255 1.000000
-0.550897 -0.526187 0.116284 0.967319 0.000000 -0.253563 255 255 255 1.000000
-0.532208 -0.489470 0.163519 -0.940928 0.000000 0.338608 255 255 255 1.000000
-0.002853 -0.605728 -0.517875 0.000000 -1.000000 0.000000 255 255 255 1.000000
-0.434518 0.665027 0.333914 0.768877 0.000000 -0.639397 255 255 255 1.000000
-0.497205 -0.605728 -0.288920 0.000000 1.000000 0.000000 255 255 255 1.000000
-0.233091 -0.241218 0.487442 -0.413532 0.000000 0.910490 255 255 255 1.000000
-0.391974 -0.396328 -0.399331 0.727435 0.000000 0.686177 255 255 255 1.000000
0.017445 0.766460 0.540588 -0.028508 0.000000 -0.999594 255 255 255 1.000000
-0.551351 0.786029 0.112835 0.968836 0.000000 -0.247705 255 255 255 1.000000
0.052325 -0.605728 0.430973 0.000000 1.000000 0.000000 255 255 255 1.000000
-0.022697 0.818995 0.539576 -0.042062 0.000000 0.999115 255 255 255 1.000000
-0.395696 -0.226857 0.380777 0.696231 0.000000 -0.717818 255 255 255 1.000000
-0.163166 -0.256095 0.516406 0.288843 0.000000 -0.957377 255 255 255 1.000000
0.016585 0.094492 -0.568780 -0.028432 0.000000 0.999596 255 255 255 1.000000
0.096944 -0.350472 -0.587005 -0.168919 0.000000 0.985630 255 255 255 1.000000
-0.244767 -0.284993 0.451694 -0.455964 0.000000 0.889998 255 255 255 1.000000
-0.158604 0.492891 -0.544268 -0.295953 0.000000 -0.955202 255 255 255 1.000000
0.313235 0.644557 -0.466804 -0.579887 0.000000 0.814697 255 255 255 1.000000
0.438709 -0.216755 0.284711 -0.813155 0.000000 -0.582048 255 255 255 1.000000
0.304973 -0.605728 0.307881 0.000000 1.000000 0.000000 255 255 255 1.000000
-0.323242 0.822188 0.403116 0.000000 1.000000 0.000000 255 255 255 1.000000
0.506355 0.525188 -0.288691 -0.888956 0.000000 0.457993 255 255 255 1.000000
0.542398 0.459799 -0.019481 0.999863 0.000000 0.016555 255 255 255 1.000000
-0.076541 -0.534333 0.359282 0.000000 -1.000000 0.000000 255 255 255 1.000000
0.083604 -0.410800 0.503073 -0.153177 0.000000 -0.988199 255 255 255 1.000000
-0.419031 0.503196 0.307185 0.781386 0.000000 -0.624048 255 255 255 1.000000
-0.263909 -0.295432 -0.531560 -0.466196 0.000000 -0.884682 255 255 255 1.000000
-0.446211 0.158966 0.318677 -0.790105 0.000000 0.612972 9 9 9 1.000000
-0.512171 0.342851 0.211892 0.905673 0.000000 -0.423976 255 255 255 1.000000
0.318250 -0.605728 -0.341950 0.000000 1.000000 0.000000 255 255 255 1.000000
-0.534611 -0.189717 0.157717 0.944615 0.000000 -0.328180 255 255 255 1.000000
0.397636 -0.605728 -0.428362 0.000000 -1.000000 0.000000 255 255 255 1.000000
-0.259827 0.739575 0.476368 -0.459333 0.000000 0.888264 255 255 255 1.000000
0.088078 -0.416279 -0.588173 0.153349 0.000000 -0.988172 255 255 255 1.000000
-0.109151 -0.605728 0.285890 0.000000 1.000000 0.000000 255 255 255 1.000000
-0.074607 0.212857 -0.589626 0.133896 0.000000 0.990995 255 255 255 1.000000
-0.525965 -0.287877 -0.143746 0.976907 0.000000 0.213666 255 255 255 1.000000
-0.532806 0.196190 -0.091785 0.993039 0.000000 0.117789 255 255 255 1.000000
-0.558596 0.542777 0.057799 0.988341 0.000000 -0.152257 255 255 255 1.000000
-0.364321 0.414194 -0.461736 -0.644815 0.000000 -0.764339 255 255 255 1.000000
0.256198 -0.232566 0.478879 0.449074 0.000000 0.893494 255 255 255 1.000000
0.034702 0.749081 0.509511 0.062127 0.000000 0.998068 255 255 255 1.000000
-0.540479 -0.260897 -0.023377 0.999956 0.000000 -0.009350 255 255 255 1.000000
0.375526 0.396939 0.362123 0.691923 0.000000 0.721971 255 255 255 1.000000
0.132276 -0.468231 0.496666 0.242159 0.000000 0.970237 255 255 255 1.000000
0.066606 -0.375260 -0.590999 0.115458 0.000000 -0.993312 255 255 255 1.000000
-0.411302 -0.495623 -0.374142 0.766450 0.000000 0.642304 255 255 255 1.000000
0.557264 0.230400 0.086400 -0.979331 0.000000 -0.202263 255 255 255 1.000000
-0.462083 0.676113 0.251079 -0.856233 0.000000 0.516589 255 255 255 1.000000
-0.510966 0.651692 0.214802 0.903307 0.000000 -0.428995 255 255 255 1.000000
0.141659 0.638205 0.495411 -0.258952 0.000000 -0.965890 255 255 255 1.000000
0.009085 0.102763 0.512884 -0.014535 0.000000 -0.999894 255 255 255 1.000000
0.404377 0.208817 0.329453 0.747843 0.000000 0.663876 255 255 255 1.000000
-0.493704 0.521512 -0.238732 -0.920365 0.000000 -0.391061 255 255 255 1.000000
0.307677 -0.057647 0.414186 0.569243 0.000000 0.822169 255 255 255 1.000000
0.044744 0.374141 -0.593878 -0.076754 0.000000 0.997050 255 255 255 1.000000
-0.273706 -0.210507 -0.495270 0.507455 0.000000 0.861678 255 255 255 1.000000
0.526962 0.812151 0.097767 -0.972375 0.000000 -0.233424 255 255 255 1.000000
-0.187127 0.441130 0.506481 -0.332109 0.000000 0.943241 255 255 255 1.000000
-0.492430 -0.514274 0.258442 0.864599 0.000000 -0.502463 255 255 255 1.000000
0.219539 0.124393 0.463152 0.405884 0.000000 0.913925 255 255 255 1.000000
-0.356012 -0.350331 -0.468111 0.630589 0.000000 0.776117 255 255 255 1.000000
0.078681 -0.514905 -0.589410 -0.136794 0.000000 0.990600 255 255 255 1.000000
0.461801 0.266413 0.254617 0.851971 0.000000 0.523589 255 255 255 1.000000
-0.366332 0.174068 0.403309 0.648222 0.000000 -0.761452 255 255 255 1.000000
0.229605 -0.101069 -0.546777 0.403213 0.000000 -0.915106 255 255 255 1.000000
0.262896 -0.534333 -0.318053 0.000000 1.000000 0.000000 255 255 255 1.000000
0.246849 -0.305093 -0.508723 0.455339 0.000000 -0.890318 255 255 255 1.000000
-0.181464 0.260228 -0.565710 -0.321917 0.000000 -0.946768 247 247 247 1.000000
-0.407115 0.394350 -0.379598 0.758193 0.000000 0.652031 255 255 255 1.000000
-0.505639 -0.530755 0.227662 -0.892534 0.000000 0.450980 255 255 255 1.000000
0.526364 0.601888 -0.240384 0.927326 0.000000 -0.374255 255 255 255 1.000000
0.454448 0.122774 0.264199 -0.840100 0.000000 -0.542432 255 255 255 1.000000
-0.556396 -0.275674 -0.131395 -0.983379 0.000000 -0.181564 255 255 255 1.000000
-0.313055 -0.207671 0.408193 0.584175 0.000000 -0.811628 255 255 255 1.000000
-0.172635 0.552731 -0.569367 -0.305982 0.000000 -0.952037 255 255 255 1.000000
0.403540 0.615151 -0.387427 0.746151 0.000000 -0.665776 255 255 255 1.000000
0.560105 0.082333 0.064818 0.986362 0.000000 0.164591 255 255 255 1.000000
-0.540566 0.778087 -0.032840 -0.999967 0.000000 -0.008118 255 255 255 1.000000
0.297828 0.387419 0.457741 -0.520811 0.000000 -0.853672 255 255 255 1.000000
0.559082 -0.265461 -0.129467 -0.983995 0.000000 0.178195 255 255 255 1.000000
0.490851 0.464528 0.194611 -0.910022 0.000000 -0.414559 255 255 255 1.000000
-0.239731 -0.358452 -0.541575 -0.425036 0.000000 -0.905176 255 255 255 1.000000
0.534885 0.423902 -0.219811 -0.941309 0.000000 0.337546 255 255 255 1.000000
-0.145882 0.785255 0.523359 -0.257584 0.000000 0.966256 255 255 255 1.000000
-0.367282 -0.521798 -0.423467 -0.682128 0.000000 -0.731233 255 255 255 1.000000
-0.567498 -0.126342 -0.009817 0.999464 0.000000 -0.032732 255 255 255 1.000000
-0.136861 -0.455743 0.524546 -0.242256 0.000000 0.970212 255 255 255 1.000000
0.428423 -0.605728 -0.338267 0.000000 -1.000000 0.000000 255 255 255 1.000000
0.374513 -0.159519 0.362901 -0.690227 0.000000 -0.723593 255 255 255 1.000000
-0.460518 -0.503291 -0.356915 -0.814848 0.000000 -0.579675 255 255 255 1.000000
-0.040026 -0.605728 -0.195536 0.000000 1.000000 0.000000 255 255 255 1.000000
-0.013207 0.654648 0.512021 0.026677 0.000000 -0.999644 255 255 255 1.000000
-0.437360 -0.146502 -0.387095 -0.774114 0.000000 -0.633046 255 255 255 1.000000
-0.311247 0.472883 0.445577 -0.550365 0.000000 0.834924 255 255 255 1.000000
-0.031951 0.276430 0.538358 0.058417 0.000000 -0.998292 255 255 255 1.000000
-0.347165 -0.605728 -0.110329 0.000000 1.000000 0.000000 255 255 255 1.000000
0.199276 -0.261518 0.502456 -0.349534 0.000000 -0.936924 255 255 255 1.000000
-0.466448 -0.413475 0.245391 -0.862951 0.000000 0.505287 255 255 255 1.000000
-0.286647 0.682819 0.428456 -0.533062 0.000000 0.846076 255 255 255 1.000000
-0.182351 -0.045321 0.508459 0.323514 0.000000 -0.946223 255 255 255 1.000000
-0.334413 0.703467 0.427801 -0.592571 0.000000 0.805518 255 255 255 1.000000
0.455856 0.589003 0.262365 -0.842408 0.000000 -0.538841 255 255 255 1.000000
0.565563 0.440663 0.023358 -0.995814 0.000000 -0.091402 255 255 255 1.000000
-0.000233 0.247234 0.513729 -0.002673 0.000000 0.999996 255 255 255 1.000000
0.175427 -0.090497 0.481424 0.323328 0.000000 0.946287 255 255 255 1.000000
0.052676 0.041408 -0.592833 -0.090800 0.000000 0.995869 255 255 255 1.000000
0.026472 0.376603 -0.567478 0.046801 0.000000 -0.998904 255 255 255 1.000000
0.416204 -0.399149 0.360952 -0.729237 0.000000 -0.684261 255 255 255 1.000000
0.002283 -0.605728 -0.057336 0.000000 1.000000 0.000000 255 255 255 1.000000
-0.550757 -0.079564 0.117345 0.966845 0.000000 -0.255362 255 255 255 1.000000
0.538854 0.693136 -0.064325 0.997780 0.000000 -0.066595 255 255 255 1.000000
0.138556 -0.577385 0.524644 0.240997 0.000000 0.970526 255 255 255 1.000000
-0.086433 -0.052559 -0.559264 -0.162913 0.000000 -0.986640 255 255 255 1.000000
0.325963 0.240028 0.436152 -0.572907 0.000000 -0.819621 255 255 255 1.000000
0.065132 0.531123 -0.591193 -0.112851 0.000000 0.993612 255 255 255 1.000000
0.516508 -0.506877 -0.189551 0.954438 0.000000 -0.298410 255 255 255 1.000000
-0.482569 0.008248 0.271293 -0.850070 0.000000 0.526670 254 254 254 1.000000
0.540351 0.399323 -0.003930 -0.998968 0.000000 -0.045418 255 255 255 1.000000
-0.280083 -0.206688 0.467977 -0.493006 0.000000 0.870026 255 255 255 1.000000
-0.376700 -0.605728 -0.282301 0.000000 1.000000 0.000000 255 255 255 1.000000
0.030486 -0.527599 0.538871 -0.051525 0.000000 -0.998672 255 255 255 1.000000
0.024443 0.237647 -0.596550 -0.040851 0.000000 0.999165 255 255 255 1.000000
0.525312 0.048825 -0.167185 -0.966700 0.000000 0.255913 255 255 255 1.000000
0.562591 -0.302974 0.045935 0.991337 0.000000 0.131342 255 255 255 1.000000
-0.261298 0.596867 -0.501730 -0.485045 0.000000 -0.874489 255 255 255 1.000000
-0.486335 -0.484822 -0.323270 -0.855709 0.000000 -0.517458 255 255 255 1.000000
-0.521338 0.039792 -0.246645 0.922780 0.000000 0.385326 255 255 255 1.000000
-0.062494 -0.605728 -0.436410 0.000000 1.000000 0.000000 255 255 255 1.000000
0.019085 0.699605 -0.568451 0.033071 0.000000 -0.999453 255 255 255 1.000000
0.180670 -0.505565 0.479252 -0.333262 0.000000 -0.942834 255 255 255 1.000000
-0.247164 -0.605728 -0.477828 0.000000 1.000000 0.000000 255 255 255 1.000000
-0.011585 -0.605728 0.019328 0.000000 -1.000000 0.000000 255 255 255 1.000000
0.525685 -0.182985 -0.164351 0.968026 0.000000 -0.250852 255 255 255 1.000000
0.241396 -0.215806 -0.541893 0.423710 0.000000 -0.905798 255 255 255 1.000000
-0.560130 0.357334 -0.103034 -0.991287 0.000000 -0.131722 255 255 255 1.000000
0.226965 -0.336548 0.490987 -0.398593 0.000000 -0.917128 255 255 255 1.000000
-0.174190 -0.605728 0.029545 0.000000 -1.000000 0.000000 255 255 255 1.000000
-0.464876 0.253180 0.247440 0.860551 0.000000 -0.509363 255 255 255 1.000000
0.163212 -0.102970 0.517395 0.284518 0.000000 0.958671 255 255 255 1.000000
-0.515879 -0.166334 -0.185197 -0.956994 0.000000 -0.290108 255 255 255 1.000000
0.347799 0.087637 0.419397 0.612028 0.000000 0.790836 255 255 255 1.000000
0.570995 0.484962 -0.038981 0.999829 0.000000 -0.018494 255 255 255 1.000000
-0.494029 -0.172509 0.181065 0.920981 0.000000 -0.389608 255 255 255 1.000000
0.558187 -0.036507 0.079385 -0.981771 0.000000 -0.190066 255 255 255 1.000000
0.414948 -0.108668 -0.419473 -0.726764 0.000000 0.686888 255 255 255 1.000000
0.274161 -0.312227 0.471438 -0.479235 0.000000 -0.877687 255 255 255 1.000000
-0.172608 0.381588 -0.538467 0.322594 0.000000 0.946537 255 255 255 1.000000
0.375149 -0.368028 0.398410 -0.658941 0.000000 -0.752195 255 255 255 1.000000
-0.475896 0.337155 -0.336874 0.839801 0.000000 0.542894 255 255 255 1.000000
-0.550988 0.345986 -0.172477 0.967625 0.000000 0.252392 255 255 255 1.000000
-0.445964 0.377786 0.318998 -0.789666 0.000000 0.613537 255 255 255 1.000000
0.505838 0.230367 0.158429 -0.937765 0.000000 -0.347272 255 255 255 1.000000
0.234768 0.065574 -0.544638 0.412218 0.000000 -0.911085 255 255 255 1.000000
-0.370403 0.683829 -0.457069 -0.655074 0.000000 -0.755565 255 255 255 1.000000
-0.565337 0.191596 0.006597 0.998093 0.000000 -0.061728 255 255 255 1.000000
0.484409 0.396069 -0.267046 0.896637 0.000000 -0.442767 255 255 255 1.000000
-0.151690 0.084752 0.490248 0.282763 0.000000 -0.959190 255 255 255 1.000000
-0.559211 0.009296 -0.110011 0.989573 0.000000 0.144031 255 255 255 1.000000
0.486430 -0.144221 -0.326316 0.852221 0.000000 -0.523182 255 255 255 1.000000
-0.365181 -0.000642 -0.425078 -0.678551 0.000000 -0.734553 255 255 255 1.000000
-0.212506 -0.605728 -0.319587 0.000000 -1.000000 0.000000 255 255 255 1.000000
-0.222924 0.705274 -0.548537 -0.395771 0.000000 -0.918349 255 255 255 1.000000
0.200506 -0.534333 0.193105 0.000000 -1.000000 0.000000 255 255 255 1.000000
0.337043 -0.605728 0.196349 0.000000 1.000000 0.000000 255 255 255 1.000000
0.470746 -0.075875 0.289872 -0.827718 0.000000 -0.561144 255 255 255 1.000000
-0.449276 0.158344 -0.371565 0.795525 0.000000 0.605921 255 255 255 1.000000
0.458771 -0.278681 -0.315450 0.847134 0.000000 -0.531379 255 255 255 1.000000
0.110757 0.745921 -0.556382 -0.203160 0.000000 0.979146 255 255 255 1.000000
0.532651 0.272498 0.168322 -0.937785 0.000000 -0.347216 255 255 255 1.000000
-0.514954 -0.509042 -0.262057 -0.911035 0.000000 -0.412328 255 255 255 1.000000
0.555995 -0.583091 -0.152919 -0.975741 0.000000 0.218929 255 255 255 1.000000
0.533751 -0.605728 -0.061364 0.000000 -1.000000 0.000000 255 255 255 1.000000
-0.150622 -0.420329 -0.578485 -0.266095 0.000000 -0.963947 255 255 255 1.000000
-0.433628 0.027268 -0.391958 -0.767226 0.000000 -0.641377 255 255 255 1.000000
0.130305 -0.150880 0.496925 -0.238615 0.000000 -0.971114 255 255 255 1.000000
0.414821 0.656291 -0.372726 -0.768574 0.000000 0.639761 255 255 255 1.000000
-0.243553 -0.460233 0.483109 0.431621 0.000000 -0.902055 255 255 255 1.000000
-0.499396 -0.460580 -0.224990 -0.930828 0.000000 -0.365458 255 255 255 1.000000
0.365785 0.603047 0.405595 -0.643169 0.000000 -0.765724 255 255 255 1.000000
-0.464598 0.222689 -0.351598 0.821639 0.000000 0.570008 255 255 255 1.000000
0.419548 -0.108970 0.309682 -0.777722 0.000000 -0.628608 255 255 255 1.000000
0.306679 -0.255300 -0.471836 0.567322 0.000000 -0.823496 255 255 255 1.000000
0.059662 0.434082 0.535030 -0.103171 0.000000 -0.994664 255 255 255 1.000000
0.533091 0.209998 -0.108099 -0.988970 0.000000 0.148115 255 255 255 1.000000
-0.046176 0.299548 -0.564564 -0.088055 0.000000 -0.996116 255 255 255 1.000000
0.068486 -0.132712 0.533868 -0.118785 0.000000 -0.992920 255 255 255 1.000000
0.379149 -0.248275 0.359344 0.697950 0.000000 0.716147 255 255 255 1.000000
-0.135317 0.003570 -0.552828 0.251967 0.000000 0.967736 255 255 255 1.000000
-0.113270 0.586061 -0.555731 0.212179 0.000000 0.977231 255 255 255 1.000000
-0.560857 0.697724 -0.097514 -0.992534 0.000000 -0.121971 255 255 255 1.000000
0.039864 -0.534333 -0.297328 0.000000 -1.000000 0.000000 255 255 255 1.000000
0.450637 0.678152 0.269167 0.833763 0.000000 0.552123 255 255 255 1.000000
-0.167467 0.816286 0.514624 -0.296633 0.000000 0.954992 255 255 255 1.000000
0.207832 -0.534333 -0.354900 0.000000 1.000000 0.000000 255 255 255 1.000000
0.391606 -0.369849 -0.442665 0.685861 0.000000 -0.727733 255 255 255 1.000000
-0.504423 0.009978 -0.212856 0.939467 0.000000 0.342638 255 255 255 1.000000
0.004422 0.565292 -0.599186 -0.005616 0.000000 0.999984 255 255 255 1.000000
0.507183 -0.098879 -0.286692 -0.890688 0.000000 0.454616 255 255 255 1.000000
-0.407835 -0.480663 0.368689 -0.717484 0.000000 0.696575 255 255 255 1.000000
0.509726 0.397770 0.223669 0.895933 0.000000 0.444190 255 255 255 1.000000
0.390814 -0.010476 0.347129 -0.719948 0.000000 -0.694028 255 255 255 1.000000
0.069642 0.106460 -0.561795 -0.127250 0.000000 0.991871 255 255 255 1.000000
0.453949 -0.534333 -0.287546 0.000000 -1.000000 0.000000 255 255 255 1.000000
-0.298507 0.666618 -0.476239 -0.556230 0.000000 -0.831028 255 255 255 1.000000
0.264855 0.676062 0.444381 -0.486996 0.000000 -0.873404 255 255 255 1.000000
0.553954 0.495979 0.111541 -0.969396 0.000000 -0.245503 255 255 255 1.000000
0.132610 -0.534333 -0.111464 0.000000 1.000000 0.000000 255 255 255 1.000000
0.257625 0.769884 0.447376 0.474385 0.000000 0.880318 255 255 255 1.000000
0.083678 0.708816 0.503064 -0.153312 0.000000 -0.988178 255 255 255 1.000000
0.219288 0.516349 -0.551050 -0.385095 0.000000 0.922877 255 255 255 1.000000
-0.532255 0.375152 0.163407 -0.941000 0.000000 0.338405 255 255 255 1.000000
0.407205 -0.075760 0.372680 -0.711358 0.000000 -0.702829 255 255 255 1.000000
0.231654 -0.605728 0.211927 0.000000 -1.000000 0.000000 255 255 255 1.000000
-0.422497 0.051928 -0.359552 -0.787948 0.000000 -0.615741 255 255 255 1.000000
0.375169 -0.118463 0.398395 0.658974 0.000000 0.752166 255 255 255 1.000000
-0.034773 0.117524 0.509182 -0.066792 0.000000 0.997767 255 255 255 1.000000
0.384044 0.721813 0.391584 0.673623 0.000000 0.739076 255 255 255 1.000000
0.389288 0.414650 0.387561 -0.682133 0.000000 -0.731228 255 255 255 1.000000
-0.048442 -0.343864 -0.564266 0.092282 0.000000 0.995733 255 255 255 1.000000
-0.516283 0.637141 0.127338 -0.957556 0.000000 0.288248 255 255 255 1.000000
0.522802 0.381272 0.117473 -0.963026 0.000000 -0.269408 255 255 255 1.000000
0.336643 0.281350 -0.448843 0.623681 0.000000 -0.781679 255 255 255 1.000000
-0.179568 0.033978 -0.535584 0.335780 0.000000 0.941941 255 255 255 1.000000
0.554854 0.630311 0.104703 0.972279 0.000000 0.233824 255 255 255 1.000000
-0.535418 -0.408402 0.015060 0.996730 0.000000 -0.080800 255 255 255 1.000000
0.093681 0.599754 -0.558630 -0.171807 0.000000 0.985131 255 255 255 1.000000
0.118095 -0.605728 -0.545412 0.000000 -1.000000 0.000000 255 255 255 1.000000
-0.225641 0.526998 -0.547411 -0.400535 0.000000 -0.916282 255 255 255 1.000000
-0.561225 -0.092035 0.037829 -0.993130 0.000000 0.117018 255 255 255 1.000000
-0.448511 -0.349586 0.315680 0.794177 0.000000 -0.607687 255 255 255 1.000000
0.185350 0.544476 -0.534197 0.342109 0.000000 -0.939660 255 255 255 1.000000
-0.434103 0.181825 -0.391339 0.768108 0.000000 0.640320 255 255 255 1.000000
-0.206828 0.351738 0.498321 -0.367337 0.000000 0.930088 255 255 255 1.000000
-0.056064 0.096720 0.920251 0.809854 0.014789 -0.586445 255 255 255 1.000000
0.514083 0.740697 0.138524 0.950879 0.000000 0.309562 255 255 255 1.000000
0.538713 0.289523 -0.065399 -0.997645 0.000000 0.068595 255 255 255 1.000000
0.534968 0.046481 -0.093843 -0.992577 0.000000 0.121622 255 255 255 1.000000
-0.063121 -0.392435 -0.591138 0.113597 0.000000 0.993527 255 255 255 1.000000
0.055167 -0.605728 -0.447571 0.000000 1.000000 0.000000 255 255 255 1.000000
-0.423905 -0.512655 0.300835 0.790588 0.000000 -0.612348 255 255 255 1.000000
0.425632 -0.571578 0.348666 0.747541 0.000000 0.664216 255 255 255 1.000000
-0.413878 0.346982 0.313902 -0.771473 0.000000 0.636262 255 255 255 1.000000
-0.386645 -0.302710 0.349392 0.716306 0.000000 -0.697786 255 255 255 1.000000
-0.542762 0.608675 0.138041 -0.956220 0.000000 0.292647 255 255 255 1.000000
0.331794 0.610686 -0.488560 0.583482 0.000000 -0.812126 255 255 255 1.000000
-0.444982 -0.102794 -0.330249 -0.828312 0.000000 -0.560267 255 255 255 1.000000
0.529748 0.562488 0.076608 -0.980814 0.000000 -0.194944 255 255 255 1.000000
0.103783 -0.012987 -0.557300 -0.190393 0.000000 0.981708 255 255 255 1.000000
-0.486713 -0.411656 0.198727 -0.906562 0.000000 0.422073 255 255 255 1.000000
0.147029 0.118738 -0.580411 -0.255406 0.000000 0.966834 255 255 255 1.000000
0.473397 0.079805 0.236748 0.871900 0.000000 0.489684 255 255 255 1.000000
-0.289577 0.712101 -0.519089 -0.509854 0.000000 -0.860261 255 255 255 1.000000
0.070606 0.440728 0.593373 0.976721 -0.208891 -0.048795 255 255 255 1.000000
-0.134179 0.669270 0.524900 -0.237675 0.000000 0.971345 255 255 255 1.000000
-0.373761 -0.468360 0.361612 0.693038 0.000000 -0.720901 255 255 255 1.000000
-0.175615 -0.192413 0.511249 0.311365 0.000000 -0.950290 255 255 255 1.000000
-0.470846 0.740159 0.237034 -0.871622 0.000000 0.490179 255 255 255 1.000000
-0.220344 0.207780 -0.518694 -0.411828 0.000000 -0.911262 255 255 255 1.000000
0.422545 0.547764 0.305777 0.783442 0.000000 0.621465 255 255 255 1.000000
-0.285436 -0.266734 -0.486269 -0.530678 0.000000 -0.847574 255 255 255 1.000000
-0.560372 -0.252915 0.044313 0.991712 0.000000 -0.128479 255 255 255 1.000000
0.053347 0.670686 -0.592745 -0.091989 0.000000 0.995760 255 255 255 1.000000
0.453920 -0.532764 0.264888 0.839228 0.000000 0.543780 255 255 255 1.000000
0.071681 0.354237 0.771662 -0.995000 0.070621 0.070621 255 255 255 1.000000
-0.313114 -0.390662 -0.465031 0.584288 0.000000 0.811546 255 255 255 1.000000
-0.332063 0.259999 0.429605 0.588350 0.000000 -0.808606 255 255 255 1.000000
-0.343485 0.465037 0.384843 -0.640511 0.000000 0.767949 255 255 255 1.000000
-0.528673 0.822188 -0.138086 0.000000 1.000000 0.000000 255 255 255 1.000000
-0.105602 0.683509 0.499857 -0.198182 0.000000 0.980165 255 255 255 1.000000
0.111855 -0.072636 -0.556238 0.205165 0.000000 -0.978727 255 255 255 1.000000
0.455499 -0.280067 0.262830 -0.841824 0.000000 -0.539752 255 255 255 1.000000
-0.535067 0.610711 -0.074613 0.996314 0.000000 0.085777 255 255 255 1.000000
-0.006998 0.069334 0.541643 0.014407 0.000000 -0.999896 255 255 255 1.000000
-0.109829 -0.345282 0.528105 -0.195669 0.000000 0.980670 255 255 255 1.000000
-0.217880 -0.534333 -0.084198 0.000000 1.000000 0.000000 255 255 255 1.000000
-0.040775 0.060688 -0.594080 0.074034 0.000000 0.997256 255 255 255 1.000000
-0.260257 0.525297 -0.502162 0.483234 0.000000 0.875491 255 255 255 1.000000
-0.536071 -0.478223 0.010102 0.997437 0.000000 -0.071553 255 255 255 1.000000
-0.097625 0.363799 -0.586595 0.174373 0.000000 0.984680 255 255 255 1.000000
-0.539592 -0.037307 0.145692 -0.951873 0.000000 0.306492 255 255 255 1.000000
0.029296 -0.534333 0.365046 0.000000 1.000000 0.000000 255 255 255 1.000000
-0.487595 -0.379255 -0.253482 0.908359 0.000000 0.418192 255 255 255 1.000000
0.554547 -0.571703 0.107035 -0.971310 0.000000 -0.237815 255 255 255 1.000000
-0.413129 0.686152 0.361789 0.727973 0.000000 -0.685606 255 255 255 1.000000
0.003608 -0.605728 0.459956 0.000000 1.000000 0.000000 255 255 255 1.000000
0.470734 -0.605728 -0.288008 0.000000 -1.000000 0.000000 255 255 255 1.000000
0.499686 -0.409889 0.173279 0.926973 0.000000 0.375128 255 255 255 1.000000
-0.147541 -0.605728 -0.210240 0.000000 1.000000 0.000000 255 255 255 1.000000
-0.437908 0.736988 -0.339469 0.816041 0.000000 0.577994 255 255 255 1.000000
-0.159624 0.181371 0.486962 0.297897 0.000000 -0.954598 255 255 255 1.000000
-0.552863 0.318823 -0.158231 0.973645 0.000000 0.228069 255 255 255 1.000000
-0.255768 -0.605728 0.123311 0.000000 -1.000000 0.000000 255 255 255 1.000000
-0.566566 -0.176158 -0.054147 0.998977 0.000000 0.045227 255 255 255 1.000000
0.248079 0.170955 0.482242 -0.435215 0.000000 -0.900327 255 255 255 1.000000
0.419583 -0.057346 -0.366521 -0.777789 0.000000 0.628526 255 255 255 1.000000
-0.491010 -0.043166 0.188352 0.915168 0.000000 -0.403072 255 255 255 1.000000
-0.088724 0.530904 -0.558963 -0.167147 0.000000 -0.985932 255 255 255 1.000000
-0.037976 0.705289 0.508760 0.072763 0.000000 -0.997349 255 255 255 1.000000
-0.486802 0.089817 -0.255396 -0.906743 0.000000 -0.421684 255 255 255 1.000000
0.194818 -0.303149 0.473392 0.359933 0.000000 0.932978 255 255 255 1.000000
0.103701 -0.452803 0.500428 -0.190241 0.000000 -0.981737 255 255 255 1.000000
0.498500 -0.579742 -0.307653 -0.871958 0.000000 0.489581 255 255 255 1.000000
-0.436421 -0.247642 0.331435 -0.772390 0.000000 0.635149 255 255 255 1.000000
0.156971 -0.166233 -0.545952 -0.288199 0.000000 0.957570 255 255 255 1.000000
-0.487957 0.633970 -0.321155 -0.858105 0.000000 -0.513475 255 255 255 1.000000
0.281776 -0.366577 0.468284 0.491795 0.000000 0.870711 255 255 255 1.000000
0.541754 0.639917 -0.014590 -0.999672 0.000000 -0.025617 255 255 255 1.000000
-0.519107 -0.418574 -0.252031 0.918765 0.000000 0.394805 255 255 255 1.000000
-0.003758 -0.605728 0.154145 0.000000 1.000000 0.000000 255 255 255 1.000000
-0.128256 -0.534333 -0.541781 0.000000 -1.000000 0.000000 255 255 255 1.000000
0.066262 0.115786 0.851208 -0.919386 0.011863 0.393178 255 255 255 1.000000
-0.441960 -0.255492 0.277305 0.823119 0.000000 -0.567869 255 255 255 1.000000
0.390143 0.446745 0.348004 -0.718542 0.000000 -0.695484 255 255 255 1.000000
0.050312 0.640372 -0.564340 -0.091231 0.000000 0.995830 255 255 255 1.000000
0.500779 -0.524539 0.245268 -0.876993 0.000000 -0.480504 255 255 255 1.000000
-0.304196 0.269246 -0.507871 0.537278 0.000000 0.843405 255 255 255 1.000000
0.559461 -0.127765 0.069708 0.984893 0.000000 0.173163 255 255 255 1.000000
-0.515053 0.345617 -0.187192 0.955832 0.000000 0.293913 255 255 255 1.000000
0.354408 -0.512133 0.414325 0.623595 0.000000 0.781748 255 255 255 1.000000
-0.401282 -0.534333 -0.332850 0.000000 1.000000 0.000000 255 255 255 1.000000
-0.066708 0.353287 0.504978 -0.126317 0.000000 0.991990 255 255 255 1.000000
0.458702 0.029952 -0.315539 -0.847024 0.000000 0.531555 255 255 255 1.000000
0.006567 -0.098832 -0.598904 0.009379 0.000000 -0.999956 255 255 255 1.000000
0.029154 -0.296918 -0.567125 0.051794 0.000000 -0.998658 255 255 255 1.000000
0.427757 0.168037 0.298984 0.793237 0.000000 0.608913 255 255 255 1.000000
0.517255 0.575233 -0.262376 0.910784 0.000000 -0.412883 255 255 255 1.000000
-0.508296 -0.355343 -0.278131 -0.897970 0.000000 -0.440056 255 255 255 1.000000
-0.453874 0.567063 -0.318661 0.843143 0.000000 0.537689 255 255 255 1.000000
-0.431735 -0.015305 -0.394425 -0.763700 0.000000 -0.645571 255 255 255 1.000000
-0.396543 0.793631 -0.437011 -0.697564 0.000000 -0.716522 255 255 255 1.000000
-0.196052 0.325295 -0.528756 -0.366806 0.000000 -0.930298 255 255 255 1.000000
-0.030336 0.021783 0.538571 0.055560 0.000000 -0.998455 255 255 255 1.000000
-0.197087 -0.009031 -0.528327 0.368743 0.000000 0.929531 255 255 255 1.000000
0.426773 -0.534333 0.039616 0.000000 1.000000 0.000000 255 255 255 1.000000
0.314243 -0.534333 0.221043 0.000000 -1.000000 0.000000 255 255 255 1.000000
-0.312201 0.152063 0.408848 0.582552 0.000000 -0.812794 255 255 255 1.000000
0.490586 -0.102064 0.195250 -0.909488 0.000000 -0.415729 255 255 255 1.000000
0.179035 -0.013203 0.510841 0.313148 0.000000 0.949704 255 255 255 1.000000
-0.311382 0.294339 0.409476 -0.580992 0.000000 0.813909 255 255 255 1.000000
-0.339272 0.222641 0.388076 0.632905 0.000000 -0.774230 255 255 255 1.000000
0.401241 -0.149940 -0.390424 0.741485 0.000000 -0.670970 255 255 255 1.000000
0.267371 -0.402570 -0.500223 0.491352 0.000000 -0.870961 255 255 255 1.000000
0.275604 0.609232 -0.527724 -0.481626 0.000000 0.876377 255 255 255 1.000000
-0.354853 -0.083982 -0.433004 0.660685 0.000000 0.750663 255 255 255 1.000000
-0.475072 -0.171093 -0.283714 -0.881390 0.000000 -0.472390 255 255 255 1.000000
0.174355 -0.351812 0.481868 -0.321293 0.000000 -0.946980 255 255 255 1.000000
0.087789 -0.347517 0.502522 0.160924 0.000000 0.986967 255 255 255 1.000000
0.530568 0.111878 0.070377 -0.983018 0.000000 -0.183509 255 255 255 1.000000
0.314186 0.629944 0.445189 0.551300 0.000000 0.834307 255 255 255 1.000000
0.557368 0.186201 -0.142490 -0.979615 0.000000 0.200886 255 255 255 1.000000
0.495815 -0.605728 -0.043127 0.000000 -1.000000 0.000000 255 255 255 1.000000
-0.560576 0.308532 0.042765 0.992063 0.000000 -0.125742 255 255 255 1.000000
0.562917 -0.403210 -0.100344 0.991906 0.000000 -0.126972 255 255 255 1.000000
0.485490 0.419048 0.207553 -0.898941 0.000000 -0.438069 255 255 255 1.000000
0.195014 -0.372945 0.473311 -0.360300 0.000000 -0.932837 255 255 255 1.000000
0.555118 -0.201924 -0.159577 0.973101 0.000000 -0.230380 255 255 255 1.000000
0.408845 -0.448382 0.323631 -0.756796 0.000000 -0.653651 255 255 255 1.000000
-0.352049 -0.357002 0.414268 -0.623723 0.000000 0.781645 255 255 255 1.000000
0.511856 -0.605728 0.076918 0.000000 -1.000000 0.000000 255 255 255 1.000000
-0.413801 0.034778 -0.417797 0.729295 0.000000 0.684200 255 255 255 1.000000
0.400265 -0.028240 -0.391696 0.739494 0.000000 -0.673163 255 255 255 1.000000
-0.464428 0.299086 0.294936 -0.821358 0.000000 0.570412 255 255 255 1.000000
0.073081 0.019759 -0.561342 -0.133646 0.000000 0.991029 255 255 255 1.000000
-0.071497 -0.224832 0.504347 0.135223 0.000000 -0.990815 255 255 255 1.000000
-0.434618 -0.169512 -0.343756 0.810198 0.000000 0.586156 255 255 255 1.000000
-0.066518 0.102319 -0.561886 -0.125963 0.000000 -0.992035 255 255 255 1.000000
0.495899 -0.534333 0.160818 0.000000 1.000000 0.000000 255 255 255 1.000000
-0.323625 0.193433 0.400082 0.604096 0.000000 -0.796912 255 255 255 1.000000
-0.114675 -0.013010 -0.584351 0.204085 0.000000 0.978953 255 255 255 1.000000
-0.418207 -0.279857 0.308260 -0.779813 0.000000 0.626012 255 255 255 1.000000
0.234581 0.379119 0.456921 -0.433320 0.000000 -0.901240 255 255 255 1.000000
-0.054791 -0.534333 -0.456411 0.000000 -1.000000 0.000000 255 255 255 1.000000
0.549279 -0.048329 0.128178 -0.961510 0.000000 -0.274770 255 255 255 1.000000
-0.034917 -0.184842 0.821242 0.507057 0.604991 -0.613905 255 255 255 1.000000
0.371582 -0.567654 -0.458030 0.652971 0.000000 -0.757383 255 255 255 1.000000
0.401983 0.049632 -0.389457 0.742994 0.000000 -0.669298 255 255 255 1.000000
0.276943 0.627539 0.437769 -0.509056 0.000000 -0.860734 255 255 255 1.000000
-0.169302 -0.605728 -0.250979 0.000000 1.000000 0.000000 255 255 255 1.000000
0.562992 0.522736 -0.099769 -0.992036 0.000000 0.125956 255 255 255 1.000000
0.471869 0.573566 0.240436 -0.868296 0.000000 -0.496047 255 255 255 1.000000
0.411738 -0.142786 0.319861 -0.762526 0.000000 -0.646957 255 255 255 1.000000
-0.532735 -0.076524 -0.092325 0.992919 0.000000 0.118796 255 255 255 1.000000
0.038031 -0.232808 -0.594761 0.064869 0.000000 -0.997894 255 255 255 1.000000
0.420915 -0.228223 -0.364784 -0.780339 0.000000 0.625357 255 255 255 1.000000
0.533274 0.364608 0.166818 -0.938778 0.000000 -0.344522 255 255 255 1.000000
-0.539869 0.306797 -0.018748 0.999840 0.000000 -0.017912 255 255 255 1.000000
-0.338816 -0.605728 0.290725 0.000000 1.000000 0.000000 255 255 255 1.000000
-0.490852 0.146506 -0.245619 0.914857 0.000000 0.403778 255 255 255 1.000000
0.308322 -0.605728 0.375022 0.000000 -1.000000 0.000000 255 255 255 1.000000
0.368756 -0.485734 -0.424202 -0.680500 0.000000 0.732748 255 255 255 1.000000
-0.090868 0.246219 0.501797 0.171105 0.000000 -0.985253 255 255 255 1.000000
-0.334695 0.569515 -0.448471 -0.624568 0.000000 -0.780970 255 255 255 1.000000
-0.063632 0.141532 0.904166 -0.917207 0.042808 0.396103 255 255 255 1.000000
-0.086978 -0.534333 -0.421078 0.000000 1.000000 0.000000 255 255 255 1.000000
0.521416 0.412947 0.195445 0.918540 0.000000 0.395327 255 255 255 1.000000
-0.470760 0.298932 -0.343566 -0.831665 0.000000 -0.555278 255 255 255 1.000000
-0.363641 -0.570772 0.405374 0.643659 0.000000 -0.765312 255 255 255 1.000000
-0.511113 0.122214 -0.196703 0.950073 0.000000 0.312027 255 255 255 1.000000
-0.050941 0.159555 -0.563937 -0.096942 0.000000 -0.995290 255 255 255 1.000000
0.182971 -0.494645 -0.535182 -0.337614 0.000000 0.941285 255 255 255 1.000000
0.466694 0.000676 0.248241 -0.859607 0.000000 -0.510956 255 255 255 1.000000
0.351127 -0.052103 0.416843 0.617869 0.000000 0.786281 255 255 255 1.000000
0.348916 -0.249858 -0.475422 -0.613994 0.000000 0.789311 255 255 255 1.000000
0.212147 0.239572 -0.554008 0.372462 0.000000 -0.928047 255 255 255 1.000000
-0.519398 0.188243 -0.251329 0.919294 0.000000 0.393572 255 255 255 1.000000
0.376611 0.319532 -0.418175 -0.693734 0.000000 0.720231 255 255 255 1.000000
-0.019924 -0.534333 -0.419909 0.000000 1.000000 0.000000 255 255 255 1.000000
-0.121727 -0.484144 0.526539 -0.216284 0.000000 0.976330 255 255 255 1.000000
0.566507 0.455734 -0.073071 0.996898 0.000000 -0.078705 255 255 255 1.000000
-0.465656 -0.133917 0.293335 0.823381 0.000000 -0.567489 255 255 255 1.000000
0.173836 -0.194588 0.512994 -0.303754 0.000000 -0.952750 255 255 255 1.000000
0.528847 -0.046259 -0.140338 -0.978244 0.000000 0.207459 255 255 255 1.000000
